NCOLS 176
NROWS 80
XLLCORNER -17.5416666667
YLLCORNER -16.375
CELLSIZE 0.416666666666667 
NODATA_value -9999 
-9999 -9999 -9999 12.91 18.94 13.51 17.06 22.88 43.52 70.4 87.37 62.3 97.97 252.08 166.27 155.42 252.49 317.84 240.3 199.95 189.91 202.16 215.03 201.82 275.77 360.31 315.13 289.34 274.95 269.18 269.94 271.06 267.85 284.89 268.78 265.99 266.72 269.87 274.1 298.05 296.98 276.27 279.1 299.03 321.09 342.65 370.46 323.39 384.34 368.31 323.18 321.81 342.06 354.73 377.19 392.37 409.58 443.08 490.33 441.43 439.45 468.93 520.29 525.63 538.89 542.74 471.16 437.72 409.95 416.7 412.5 421.41 432.42 429.11 418.49 392.92 365.06 341.23 309.29 268.25 242.35 226.01 212.39 198.19 181.8 189.18 220.27 267.36 322.12 356.35 393.56 431.81 471.86 527.5 618.05 805.01 1052.33 1024.55 826.94 713.13 668.66 648.12 635.33 649.41 643.64 671.21 631.46 647.18 531.78 470.68 427.6 420.32 489.11 387.95 409.45 414.56 546.84 405.18 356.95 434.56 451.77 411.29 379.23 393.27 376.78 380.13 390.02 395.65 405.56 419.87 536.32 423.74 624.68 999.29 1340.47 276.905405405405 -9999 -9999 -9999 -9999 -9999 -9999 -9999 -9999 -9999 -9999 -9999 -9999 -9999 -9999 -9999 -9999 -9999 -9999 -9999 -9999 -9999 -9999 -9999 -9999 -9999 -9999 -9999 -9999 -9999 -9999 -9999 -9999 -9999 -9999 -9999 -9999 -9999 -9999 -9999 -9999
-9999 -9999 -9999 5.73 16.18 30.64 36.71 27.62 25.28 47.32 56.66 45.89 64.44 210.02 150.42 153.54 257.73 212.27 183.13 181.4 197.57 201.73 205.67 205.04 239.93 323.11 311.8 284.55 273.91 275.91 291.92 277.86 278.83 273.77 266.11 268.99 274.47 294.8 297.56 310.01 326.27 289.68 272.81 290.34 309.79 336.58 356.08 325.03 346.81 333.92 310.93 337.55 333.99 359.93 392.68 416.67 441.1 457.32 500.09 504.3 492.69 498.37 501.55 520.85 543.55 498.6 450.16 421.87 405.04 443.25 429.52 419.39 409.54 394.6 375.38 359.63 342.99 327.95 310.74 280.61 262.09 247.77 247.49 233.81 219.65 226.76 261.91 307.98 342.76 368.93 407.82 443.32 486 528.75 588.37 749.39 955.28 930.04 803.16 741.03 712.62 684.91 712.34 750.39 757.64 777.31 679.11 709.88 585.02 501.72 437.3 409.03 407.92 397.67 476.29 506.88 567.19 456.03 361.76 431.74 413.23 426.92 457.38 418.15 395.27 389.91 398.73 406.42 408.88 437.34 555.21 426.99 789.07 1218.03 1358.2 379.765306122449 -9999 -9999 -9999 -9999 -9999 -9999 -9999 -9999 -9999 -9999 -9999 -9999 -9999 -9999 -9999 -9999 -9999 -9999 -9999 -9999 -9999 -9999 -9999 -9999 -9999 -9999 -9999 -9999 -9999 -9999 -9999 -9999 -9999 -9999 -9999 -9999 -9999 -9999 -9999 -9999
-9999 -9999 12.4769230769231 19.36 30.01 44.47 50.57 50.81 49.89 39.21 47.92 55.1 74.98 192.03 127.22 204.15 246.16 178.05 169.82 186.83 204.85 224.32 234.63 253.9 267.38 286.65 305.41 296.88 290.19 308.98 290.36 277.02 273.57 266.24 268.7 275.7 294.4 316.46 317.77 310.39 322.34 303.99 281.42 279.01 309.32 315.33 329.4 314.68 303.72 306.55 295.71 316.06 326.51 369.5 405.45 434.11 462.28 478.16 507.45 520.36 514.94 514.63 514.98 520.96 495 460.83 438.15 425.62 405.7 440.19 411.48 390.72 374.88 362.07 353.88 346.96 338.37 326.98 314.97 294.16 279.28 272.56 284.1 283.51 267.63 272.51 279.9 332.61 357.36 382.98 410.29 440 487.25 554.19 639.64 744.61 868.32 846.74 810.06 814.84 754.13 785.32 820.2 887.3 921.03 789.15 757.34 749.57 645.51 535.19 445.3 453.46 485.73 431.13 471.49 579.94 593.62 455.97 382.23 438.75 413.03 479.19 520.93 470.24 446.28 416.95 416.31 421.92 433.58 483.74 586.44 499.93 627.54 1265.94 1468.28 799.11 -9999 -9999 -9999 -9999 -9999 -9999 -9999 -9999 -9999 -9999 -9999 -9999 -9999 -9999 -9999 -9999 -9999 -9999 -9999 -9999 -9999 -9999 -9999 -9999 -9999 -9999 -9999 -9999 -9999 -9999 -9999 -9999 -9999 -9999 -9999 -9999 -9999 -9999 -9999 -9999
-9999 -9999 34.5050505050505 44.2 45.12 40.49 42.25 51.05 61.41 67.88 40.18 40.62 69.9 122.76 113.85 215.74 171.1 194.84 203.1 215.03 240.62 263.04 277.52 285.82 273.77 269.44 298.94 309.74 283.79 276.87 267.55 265.13 264.86 271.88 272.02 289.92 303.96 311.56 311.5 300.38 303.08 292.32 281.12 270.08 288.13 300.67 311.88 301.82 283.43 285.86 278.06 300.69 330.7 357.01 441.68 487.84 473.09 466.8 477.61 482.61 490.34 497.53 495.94 485.51 468.55 451.13 441.62 432.4 418.6 396.37 379.26 366.97 357.54 353.87 350.08 346.17 342.56 337.05 332.45 324.24 311.61 296.64 288.52 286.73 280.93 274.5 300.97 342.88 361.04 381.16 405.02 436.76 487.01 564.91 746.93 934.88 857.12 808.76 810.28 828.54 812.2 852.35 908.62 1037.02 885.97 948.18 928.17 784.55 722.53 550.25 466.42 500.4 583.21 474.39 485.07 572.5 582.24 452.07 419.13 422.94 392.33 421.31 461.28 468.94 477.55 479.14 463.53 444.04 461.27 531.12 726.1 739.06 645.01 783.45 1307.12 1603.52 404.919191919192 -9999 -9999 -9999 -9999 -9999 -9999 -9999 -9999 -9999 -9999 -9999 -9999 -9999 -9999 -9999 -9999 -9999 -9999 -9999 -9999 -9999 -9999 -9999 -9999 -9999 -9999 -9999 -9999 -9999 -9999 -9999 -9999 -9999 -9999 -9999 -9999 -9999 -9999 -9999
-9999 35.2619047619048 37.13 45.02 52.37 49.09 43.99 45.01 54.59 64.01 74.34 48.81 57.52 77.28 116.42 124.57 135.31 250.47 269.6 279.03 303.05 296.84 288.15 276.41 275.87 283.02 294.19 308.67 282.05 271.42 268.25 264.02 269.05 321.05 373.85 366.62 312.7 295.78 286.81 271.38 267.04 277.13 270.51 265.7 270.55 283.94 285.29 284.2 272.5 276.18 256.96 277.82 308.85 340.74 393.03 442.9 481.72 483.61 438.28 445.2 458.96 463.68 473.39 499.72 480.31 467.54 454.02 434.67 413.14 386.63 369.17 359.58 357.56 356.87 349.46 348.38 353.03 355.99 349.73 338.63 325.86 310.27 294.95 282.82 277.8 286.84 315.4 341.76 357.52 379.32 408.93 446.44 502.62 612.22 889.29 942.09 871.23 844.88 875 942.67 914.81 932.05 1020.19 937.45 898.7 1001.35 874.6 795.79 739.29 618.69 502.91 530.02 596.05 507.09 497.09 562.03 518.71 463.44 433.15 420.46 391.53 396.02 416.76 433.18 466.33 522.71 521.36 475.19 475.8 544.28 712.96 833.5 943.85 1057.07 1516.06 1960.88 1606.63 433.22 70.56 -9999 -9999 -9999 -9999 -9999 -9999 -9999 -9999 -9999 -9999 -9999 -9999 -9999 -9999 -9999 -9999 -9999 -9999 -9999 -9999 -9999 -9999 -9999 -9999 -9999 -9999 -9999 -9999 -9999 -9999 -9999 -9999 -9999 -9999 -9999 -9999 -9999
16.5633802816901 36.33 21.13 29.43 39.45 46.72 49.02 49.05 53.61 62.41 72.91 87.92 60.26 50.51 78.36 80.29 207.12 294.76 269.12 293.43 282.37 276.76 279.5 286.25 299.47 288.39 283.12 277.89 276.44 272.84 269.3 266.26 289.64 463.17 465.18 297.27 279.11 276.2 277.86 284.33 305.36 285.44 270.29 262.01 242.02 266.65 272.22 275.09 270.34 273.21 250.86 275.49 297.67 317.84 345.76 415.36 477.94 407.86 400.96 417.4 433.01 444.41 475.64 485.57 484.61 476.5 482.63 445.11 399.86 372.93 355.96 347.83 342.35 332.79 314.03 321.13 337.16 351.46 354 338.09 320.07 303.23 288.9 284.37 289.71 299.7 323.17 342.06 361.07 383.62 413.2 455.22 540.29 716.36 924.19 973.99 894.93 885.93 900.16 928.63 1010.5 1068.52 1041.12 983.4 952.42 836.89 732.01 724.51 724.5 609.72 527.89 582.21 547.02 519.86 495.15 484.95 446.72 425.45 406.5 390.47 394.2 400.09 415.23 434.32 463.91 510.21 549.42 508.28 505.05 567.06 785.5 945.67 1019.68 1264.18 1524.99 1665.6 1985.75 1226.07 69.97 63.9684210526316 -9999 -9999 -9999 -9999 -9999 -9999 -9999 -9999 -9999 -9999 -9999 -9999 -9999 -9999 -9999 -9999 -9999 -9999 -9999 -9999 -9999 -9999 -9999 -9999 -9999 -9999 -9999 -9999 -9999 -9999 -9999 -9999 -9999 -9999 -9999 -9999
-9999 10.7820512820513 5.86 18.43 31.09 38.24 45.19 48.91 50.67 55.34 65.01 82.71 77.55 100.77 162.85 113.98 269.83 298.94 258.4 291.6 258.83 296.86 341.33 346.58 342.84 299.12 284.86 281.38 278.34 275.67 271.46 268.66 329.15 400.49 291.26 270.04 297.08 307.5 301.78 310.45 312.79 283.47 278.17 278.53 253.69 239.07 258.79 255.7 259.04 258.53 250.64 278.29 282.51 289.67 306.94 377.55 393.34 383.12 392.91 410.64 430.77 438.61 454.8 472.44 488.37 458.81 461.4 409.71 377.63 360.54 347.97 339.09 332.51 302.94 281.76 288.7 309.9 335.34 336.26 321.08 305.75 292.57 287.74 291.55 295.49 310.44 334.05 350.16 364.5 383.38 413.91 471.36 641.78 835.31 944.32 1035.26 925.66 865.31 890.57 955.16 1172.05 1126.13 1040.42 969.44 848.6 762.61 707.62 668.39 703.81 601.06 562.69 561.59 558.38 501.91 500.78 479.85 433.29 414.37 403.61 388.33 396.79 412.74 411.18 420.12 450.96 498.86 549.06 565.49 530.82 586.71 723.52 911.21 995.35 1423.64 1735.25 1877.74 2237.16 1808.15 271.72 31.81 459.91 -9999 -9999 -9999 -9999 -9999 -9999 -9999 -9999 -9999 -9999 -9999 -9999 -9999 -9999 -9999 -9999 -9999 -9999 -9999 -9999 -9999 -9999 -9999 -9999 -9999 -9999 -9999 -9999 -9999 -9999 -9999 -9999 -9999 -9999 -9999
-9999 -9999 10.5454545454545 23.68 27.91 33.72 36.27 44.41 39.99 48.56 60.32 75.05 96.11 112.04 196.12 159.97 214.5 265.58 231.51 261.74 285.96 310.51 384.4 393.29 344.48 316.84 292.89 284.65 280 276.13 272.57 278.67 364.82 306.23 262.4 290.85 333.49 334.45 328.35 311.48 301.28 295.65 292.74 273.08 261.57 230.44 245.95 245.22 246.34 237.88 261.64 271.56 275.19 277.65 292.55 334.87 322.92 334.86 359.03 386.53 407.21 424.73 458.72 461 446.29 408.26 407.08 371.48 355.43 346.51 338.88 332.38 311.29 290.35 278.8 280.4 293.55 309.18 317.6 302.95 293.21 291.15 294.47 297 301.51 317.99 340.23 354.5 369.05 390.4 425.89 501.21 615.99 722.5 847.11 957.76 889.01 867.35 935.7 1032.06 1229.8 945.31 859.33 846.78 751.21 712.77 714.12 661.36 646.23 590.53 604.06 579.25 581.44 535.81 513.73 475.29 446.18 425.27 415.32 387.24 393.92 434.86 427.85 421.37 433.71 471.86 537.48 601.6 573.31 614.71 803.81 1303.14 999.42 1297.33 1659.47 1756.55 2032.81 1986.63 376.1 -18.66 319.99 397.65 -9999 -9999 -9999 -9999 -9999 -9999 -9999 -9999 -9999 -9999 -9999 -9999 -9999 -9999 -9999 -9999 -9999 -9999 -9999 -9999 -9999 -9999 -9999 -9999 -9999 -9999 -9999 -9999 -9999 -9999 -9999 -9999 -9999 -9999
-9999 -9999 17.0824742268041 19.19 25.74 31.88 36.46 36.08 38.78 44.64 55.42 88.06 116.82 121.28 159.46 221.59 168.76 260.33 265.86 325.7 360.33 352.19 383.68 390.19 342.09 304.61 293.33 286.89 280.37 278.41 280.14 314.24 350.59 263.22 267.67 307.36 330.83 333.97 331.47 318.51 300.62 282.05 275.33 265.74 262.32 252.95 247.81 233.08 238.16 229.78 251.39 252.61 258.88 262.56 284.77 301.12 312.24 331.32 373.06 400.73 442.88 441.65 453.98 418.17 400.25 378.06 364.6 351.57 343.69 338.27 333.81 319.83 303.18 296.61 283.91 281.46 285.19 286.71 291.31 295.36 294.41 299.93 301.33 300.25 302.95 323.41 341.76 356.58 373.52 395.5 426.84 488.4 581.85 653.31 802.82 827.1 846.56 852.25 973.37 1103.65 1364.25 1005.9 775 704.42 684.09 656.15 607.4 583.15 595.2 583.52 580.77 614 631.04 577.53 536.4 499.05 459.22 435.79 419.37 393.79 393.76 436.82 440.45 429.91 434.73 460.94 515.27 544.8 645.91 711.04 801.4 1446.47 1418.16 1957.65 2138.81 1581.6 2065.15 1786.36 589.86 35.56 31.46 419.96 590.05 -9999 -9999 -9999 -9999 -9999 -9999 -9999 -9999 -9999 -9999 -9999 -9999 -9999 -9999 -9999 -9999 -9999 -9999 -9999 -9999 -9999 -9999 -9999 -9999 -9999 -9999 -9999 -9999 -9999 -9999 -9999 -9999 -9999
-9999 -9999 15.66 26.94 31.76 37.97 43.74 50.54 52.27 54.77 59.98 100.62 138.97 163.15 143.25 274.24 257.24 278.07 314.86 339.72 406.57 379.09 413.37 363.33 341.7 335.46 308.33 301.47 295.46 296 296.39 343.03 301.04 260.08 277.29 301.13 318.26 316.44 312.32 315.92 310.51 295.32 278.55 268.61 264.62 252.13 239.55 227.84 231.68 221.18 234.02 239.44 251.23 254.88 286.49 291 313.77 356 422.83 455.45 491.87 484.24 460.02 401.15 374.3 360.62 351.47 344.57 339.47 334.93 330.54 320.16 307.45 297.84 291.31 283.45 281.74 283.42 286.59 290.04 291.34 292.27 291.29 290.18 295.79 324.78 342.46 358.67 382.22 411.43 435.73 467.42 535.65 570.72 698.25 829.36 805.65 822.75 962.41 1101.84 1697.46 1027.5 759.88 659.68 633.35 603.91 565.61 539.33 540.78 544.7 585.73 635.5 644.29 645.67 563.29 519.38 471.64 443.01 421.87 401.44 390.41 414.34 442.02 440.99 443.79 453.13 471.31 508.37 678.5 867.82 1020.48 1260.07 1947.05 2395.1 1946.09 1532.6 2117.42 1864.67 765.07 329.93 88.35 150.41 325.25 382.30303030303 -9999 -9999 -9999 -9999 -9999 -9999 -9999 -9999 -9999 -9999 -9999 -9999 -9999 -9999 -9999 -9999 -9999 -9999 -9999 -9999 -9999 -9999 -9999 -9999 -9999 -9999 -9999 -9999 -9999 -9999 -9999 -9999
-9999 -9999 8.83838383838384 18.76 24.88 34.06 45.47 46.74 60.65 78.71 79.34 115.13 165.52 191.91 176.86 240.59 349.72 326.26 369.16 344.97 432.18 467.54 429.43 356.42 346.93 322.02 305.54 321.3 336.96 321.91 344.66 397.53 302.51 269.74 278.18 283.73 300.63 325.43 306.15 295.59 314.05 295.53 285.61 283.93 274.02 268.8 247.02 241.7 216.63 215.43 218.8 232.22 231.54 267.18 287.76 303.52 330.93 398.33 438.75 492.67 533.73 516.54 442.66 391.68 372.63 361.42 353.9 348.72 344.01 341.5 336.16 330.23 310.6 298.72 291.83 286.15 286.76 289.7 290.69 292.45 293.37 294.59 294.84 296.57 310.1 348.05 365.47 385.08 408.94 450.39 458.55 465.02 509.79 592.55 639.47 686.55 698.27 862.58 1037.55 1122.78 1049.7 906.56 723.42 616.56 581.35 569.25 533.02 515.36 519.84 529.51 577.66 614.72 606.8 620.36 544.15 536.86 524.38 481.65 431.34 403.7 392.16 427.7 474.05 459.32 455.56 465.77 483.32 524.68 658.09 828.19 1237.03 1878.01 2246.4 1722.2 1651.79 2051.69 2253.72 1590.66 676.24 511.43 430.26 349.89 371.34 536.44 351.54 167.367647058824 -9999 -9999 -9999 -9999 -9999 -9999 -9999 -9999 -9999 -9999 -9999 -9999 -9999 -9999 -9999 -9999 -9999 -9999 -9999 -9999 -9999 -9999 -9999 -9999 -9999 -9999 -9999 -9999 -9999 -9999
-9999 -9999 8.25 13.3 18 26.14 32.69 51.75 71.93 93.37 110.16 281.4 555.1 345.68 411.93 330.29 437.62 395.14 465.19 396.34 370.97 404.87 359.1 362.94 349.85 336.34 316.87 333.98 332.7 353.36 365.2 394.38 308.12 306.05 299.56 274.18 300.6 326.25 313.09 282.57 294.71 307.69 305.64 287.08 271.98 266.86 269.09 261.03 237.37 201.71 211.23 225.11 233.69 263.27 267.77 312.3 365.82 437.55 482.06 515.06 560.3 537.22 466.31 409.51 384.13 372.14 365.09 362.66 362.15 361.98 358.31 348.81 332.08 308.28 297.39 292.42 291.35 292.56 295.12 297.75 300.6 303.18 308.11 313.74 342.49 399.17 438.09 526.56 462.94 456.2 458.81 486.51 533.14 551.74 575.36 611.45 615.18 726.53 982.21 884.43 799.68 740.76 633.54 556.19 536.91 519.05 501.33 495.04 502.47 510.14 552.21 560.48 635.48 649.9 603.96 576.42 738.76 655.88 484.07 405.57 389.12 414.56 470.99 484.09 470.73 496 518.24 596.7 849.89 1074.75 1605.96 1809.42 1998.21 2143.85 1847.14 2239.61 2600.11 1437.67 801.49 617.02 542.41 524.82 454.19 404.87 664.62 370.19 -9999 -9999 -9999 -9999 -9999 -9999 -9999 -9999 -9999 -9999 -9999 -9999 -9999 -9999 -9999 -9999 -9999 -9999 -9999 -9999 -9999 -9999 -9999 -9999 -9999 -9999 -9999 -9999 -9999 -9999
-9999 -9999 -9999 11 11.1136363636364 16.71 36.34 67.41 111.68 185.8 171.63 389.35 730.26 614.28 587.78 562.1 490.11 449.62 490.99 380.79 384.53 367.18 366.63 365.92 350.33 343.93 333.89 358.46 344.8 329.03 356.74 338.65 314.88 319.32 291.98 273.32 309.12 332.44 310.74 288.78 266.3 281.2 278.29 262.23 219.69 215.17 245.05 266.93 255.6 215.26 195.81 199.07 220.91 264.46 332.98 375.01 412.19 495.89 596.38 615.15 603.68 535.07 473.12 442.09 419.27 396.68 393.79 394.73 414.35 412.38 393.29 381.12 356.36 335.6 315.61 303.93 298.46 297.39 300.38 308.75 322.99 320.99 326.53 331.43 363.52 442.81 524.93 523.58 475.53 444.24 457.81 468.55 489.28 497.88 522.46 599.05 656.81 689.25 764.63 686.46 657.28 630.17 555.66 507.96 499.15 486.81 474.3 473.23 472.93 497.07 530.27 551.43 677.89 703.66 677.55 666.94 746.68 703.12 504.53 410.94 390.33 426.23 498.3 554.01 499.69 538.96 601.97 665.4 873.14 1055.64 1747.94 1815.63 1998.4 2558.94 2390.45 2439.51 2827.34 1644.62 880.44 730.2 446.14 426.05 516.88 415.05 605.510869565217 -9999 -9999 -9999 -9999 -9999 -9999 -9999 -9999 -9999 -9999 -9999 -9999 -9999 -9999 -9999 -9999 -9999 -9999 302.529411764706 311.3875 -9999 -9999 -9999 -9999 -9999 -9999 -9999 -9999 -9999 -9999 -9999
-9999 -9999 -9999 -9999 -9999 12.685393258427 29.67 82.7 167.5 306.39 349.08 733.89 951.56 763.95 714.49 572.81 461.57 405.99 401.5 384.56 373.17 376.64 374.72 367.23 350.65 344.76 331.57 396.34 411.83 408.51 371.53 357.92 331.71 318.21 293.9 273.95 313.84 323.4 307.75 279.41 252.85 238.37 272.11 215.1 188.07 192.78 241.03 296.15 266.59 265.96 246.16 211.42 186.42 228.99 333.38 403.09 466.21 498.04 608.4 672.7 656.47 622.46 566.86 543.08 480.23 443.61 445.19 429.44 433.32 364.32 393.31 438.55 395.48 364.48 355.12 348.9 315.22 305.36 305.39 316.39 329.09 331.31 333.26 337.01 367.99 453.94 509.31 473.1 472.42 433.05 435.82 452.29 466.83 472.26 483.21 520.99 587.97 599.03 618.7 592.22 571.79 548.58 488.6 474.26 471.27 462.89 453.33 447.38 446.29 475.53 532.32 526.81 590.74 582.79 632.95 759.52 631.55 545.36 468.39 400.26 392.32 426.32 500.5 659.87 580.07 558.73 752.79 779.66 1135.15 1274.48 1937.63 2132.73 2067.17 2178.98 1951.29 2229.14 2439.18 2012 1050.63 608.74 517.08 432.82 455.3 375.3 568.11 286.873563218391 -9999 -9999 -9999 -9999 -9999 -9999 -9999 -9999 -9999 -9999 -9999 -9999 152.52 107.12 343.764705882353 973.58064516129 520.24 607.26 532.984848484848 -9999 -9999 -9999 -9999 -9999 -9999 -9999 -9999 -9999 -9999 -9999
-9999 -9999 -9999 -9999 -9999 -9999 12.3188405797101 54.24 171.44 330.27 421.28 554.62 870.68 766.52 700.15 573.09 442.87 419.4 421 386.75 393.64 396.17 388.55 371.14 368.58 346.64 333.31 344.84 435.48 507.67 460.67 379.01 321.35 309.37 287.58 279.19 305.32 313.81 272.18 215.93 223.24 217.77 268.29 194.11 171.2 261.03 371.38 307.25 293.85 284.46 297.73 272.33 216.91 192.49 276.77 370.16 439.33 466.45 595.57 637.8 648.1 668.7 682.8 700.56 609.56 511.85 486.14 427.16 445.74 332.56 424.29 531.11 453.92 430.49 500.06 623.28 396.95 318.73 311.71 319.65 327.08 332.4 336.15 341.16 358.94 405.01 449.72 449.21 446.11 423.44 428.38 440.12 448.26 452.58 454.91 475.73 513.43 551.41 548.01 534.61 529.8 504.88 476.58 457.46 451.61 445.35 436.56 432.85 431.59 443.57 477.42 495.82 493.22 517.38 608.78 626.19 543.22 481.74 426.34 396.32 392.47 412.06 484.64 601.27 712.05 735.04 682.11 968.05 1044.34 1523.81 2248.98 2347.81 2518.13 2465.01 1925.62 2769.95 2998.97 2113.74 1103.68 638.24 601.6 565.59 512.94 564.81 713.89 349.93 100.107142857143 -9999 -9999 -9999 -9999 -9999 -9999 -9999 -9999 861.701298701299 1022.41 1127.59 1066.51 753.4 647.89 1189.61 960.61 426.83 196.783333333333 -9999 -9999 -9999 -9999 -9999 -9999 -9999 -9999 -9999 -9999 -9999
-9999 -9999 -9999 -9999 -9999 -9999 -9999 40.659793814433 128.5 190.18 342.95 345.54 648.48 721.29 727.55 574.34 446.58 418.66 417.84 405.64 408.22 406.52 406.17 384.53 381.67 368.84 351.27 344 347.74 346.66 310.74 306.68 338.96 341.82 305.07 280.89 279.59 276.04 198.43 155.86 201.39 258.23 208.05 152.88 223.76 438.05 406.39 333.43 323.75 304.63 326.68 298.14 196.47 194.93 296.65 343.53 335.27 410.01 516.25 600.19 636.33 675.22 761.86 849.58 660.88 574.71 505.43 408.91 479.63 326.92 380.14 539.13 447.62 502.83 752.68 608.32 421.64 343.04 321.95 324.49 330.01 332.48 337.44 343.01 354.52 374.07 398.88 430.12 420.83 410.81 418.31 426.04 432.46 438.15 440.4 464.81 490.13 511.56 502.94 513.58 512.8 488.65 469.74 453.83 442.48 434.84 427.07 421.69 421.5 425.23 429.15 436.71 435.85 444.04 466.42 484.09 466.01 441.23 406.51 393.09 391.93 404.28 459.63 547.6 823.98 1008.92 761.32 1341.75 1453.34 1288.05 1601.73 1870.5 2485.9 2561.39 1840.78 1983.83 2447.53 2444.34 1091.19 668.17 664.67 699.26 685.92 780.36 884.77 755.87 393.91 167.569620253165 -9999 -9999 172.140845070423 248.092783505155 507.47 411.78 679.45 1607.79 1398.38 1262.93 1018.78 774.22 561.44 468.37 462.2 250.26 -9999 -9999 -9999 -9999 -9999 -9999 -9999 -9999 -9999 -9999 -9999 -9999
-9999 -9999 -9999 -9999 -9999 -9999 -9999 -9999 22.3368421052632 124.02 336.99 289.73 326.03 416.61 445.88 496.22 459.26 454.58 439.57 420.91 431.86 418.57 424.49 411.96 413.47 407.63 375.81 354.44 351.63 323.17 297.82 284.02 344.98 364.49 310.88 272.33 296.14 232.95 226.96 138.31 143.06 168.5 162.57 150.56 233.81 408.94 406.14 363.57 362.22 370.84 339.43 279.54 214.15 210.45 280.75 262.82 226.9 281.13 374.78 527.49 655.96 749.31 823.34 1003.27 784.88 590.05 502.93 357.4 469.67 349.78 289.41 483.58 497.67 570.76 683.5 467.48 395.14 364.96 333.03 332.6 337.69 337.42 339.76 346.59 353.39 366.58 380.33 396.16 397.09 401.56 407.6 414.98 419.77 425.24 433.33 461.49 502.43 502.08 534.13 550.78 545.96 513.42 489.07 470.14 447.45 431.3 423.48 417.7 413.96 412.39 411.91 405.6 405.76 414.93 417.41 433.9 436.3 410.96 399 393.82 392.93 402.46 435.14 511.39 840.38 1324.14 1105.95 894.76 1179.26 1717.47 1738.88 1614.93 1758.2 1878.88 1898.62 1772.02 2269.22 2335.95 1009.53 687.09 730.46 746.65 722.83 856.24 1155.87 1359.6 1085.4 778.11 580.4 677.81 852.52 799.37 789.52 777.38 879.75 1290.47 1143.6 1046.07 1045.98 946.61 788.21 598.56 471.04 338.270833333333 -9999 -9999 -9999 -9999 -9999 -9999 -9999 -9999 -9999 -9999 -9999 -9999
-9999 -9999 -9999 -9999 -9999 -9999 -9999 -9999 -9999 42.1276595744681 213.04 249.48 115.32 267.81 435.77 472.53 490.64 504.15 486.84 489.6 522.1 517.65 447.24 432.08 440.89 472.06 395.39 368.89 350.23 338.86 302.15 261.59 300.55 339.57 326.86 274.87 286.73 252.13 212.22 129.35 148.89 193.91 139.58 176.29 297.17 411.96 384.69 328.57 355.26 414.9 360.9 311.99 239.17 202.63 201.72 202.97 138.72 238.66 371.32 509.01 628.12 743.88 882.83 1202.78 937.72 616.71 488.15 326.53 385.5 393.88 299.9 273.41 285.82 373.9 386.58 319.7 319.58 360.61 363.33 347.03 346.19 348 345.19 349.55 367.48 367.09 387.3 410.3 390.49 394.88 400.9 406.59 412.35 421.39 458.42 490.79 575.59 566.64 607.65 621.47 569.92 534.36 543.74 524.15 479.85 445.5 425.24 420.59 415.28 407.82 403.45 399.44 398.31 402.89 402.75 404.03 404.11 402.47 397.77 395.77 395.56 400.74 420.22 630.09 1038.68 1449.48 1550.78 1426.36 1129.08 1567.13 1730.17 2149.47 1811.39 1902.17 2292.44 2447.15 2631.15 2187.03 862.63 812.16 936.98 1067.63 1224.65 1510.82 1689.86 1651.63 1528.25 1281.6 1132.71 1245.53 1287.9 1097.59 927.11 938.67 917.68 859.67 895.36 952.92 922.73 878.34 768.53 665.93 501.61 323.722222222222 -9999 -9999 -9999 -9999 -9999 -9999 -9999 -9999 -9999 -9999 -9999 -9999
-9999 -9999 -9999 -9999 -9999 -9999 -9999 -9999 -9999 -9999 19.7216494845361 57.9 78.63 218.27 443.16 523.62 601.38 555.64 562.09 690.08 646.1 613.3 515.05 470.32 407.63 445.66 404.04 379.62 355.33 351.32 331.22 269.34 261.1 294.68 320.81 267.91 290.99 214.58 146.38 127.13 131.95 177.02 144.24 220.72 392.09 423.81 364.24 304.93 340.41 386.22 371.15 340.18 280.17 160.32 141.36 168.51 124.53 165.74 285.27 464.14 552.95 516.84 593.53 1129.86 875.35 464.11 299.88 218.53 208.96 198.03 271.1 223.11 228.83 215.92 235.06 278.84 351.26 396.56 430.03 408.04 374.38 371.73 386.66 383.59 442.78 406.14 382.24 383.91 382 388.74 396.07 406.28 419.52 439.95 472.9 521.53 556.27 674.18 822.14 683.73 613.6 624.44 613.3 574.66 513.67 479.13 448.11 430.28 418.87 408.21 402.64 398.32 395.4 396.88 398.02 400.49 402.41 401.99 399.84 398.3 398.15 399.91 413.56 547.39 1176.02 1527.61 1547.77 1663.87 1404.94 1512.67 1812.33 2207.12 1883.25 2391.52 2541.28 2673.33 2482.02 1542.09 849.1 1245.27 1703.56 1976.66 2010.94 1724.21 1640.44 1689.25 1541.82 1347.12 1170.09 1040.7 993.73 1015.31 858.17 783.32 674.79 665.26 733.81 815.5 793 823.45 648.15 523.99 379.71 -9999 -9999 -9999 -9999 -9999 -9999 -9999 -9999 -9999 -9999 -9999 -9999 -9999
-9999 -9999 -9999 -9999 -9999 -9999 -9999 -9999 -9999 -9999 12.1142857142857 44.29 67.08 150.65 381.24 412.11 522.56 494.2 601.76 767.42 729.69 721.52 640.48 492.4 382.73 391.27 354.32 362.43 341.58 338.3 324.33 296.57 256.88 279.24 337.47 271.63 245.33 191.89 129.4 108.98 121.97 154.59 149.78 256.45 393.73 333.3 323.11 272.85 304.05 358.12 400.98 398.21 329.64 251.2 179.82 118.66 93 119.89 169.06 345.45 361.49 331.44 338.94 281.17 259.37 213 159.22 143.29 164.99 369.25 558.73 377.21 462.26 324.15 286.89 241.84 298.06 389.38 445.73 426.74 441.72 428.46 392.75 387.65 411.65 380.73 373.71 378.25 383.5 391.99 448.08 482.27 461.32 485.48 524.25 629.07 693.82 852.53 882.13 759.96 826.41 774.5 683.44 578.63 514.71 500.41 475.54 447.41 420.03 411.16 405.83 398.76 392.24 393.27 397.67 400.47 402.38 403.17 403.36 401.5 401.72 402.63 407.34 471.73 813.21 1761.42 1487.28 1669.82 1674.77 1772.48 1694 1852.7 2381.8 2416.99 2202.39 2140.87 1907.72 1217.13 1338.75 1760.6 1693.51 1513.62 1489.87 1381.59 1398.02 1411.64 1431.35 1314.98 1196.07 1081.02 930.8 879.38 896.05 820.96 691.01 593.55 554.03 552.3 499.39 571.65 615.72 463.84 301.618556701031 -9999 -9999 -9999 -9999 -9999 -9999 -9999 -9999 -9999 -9999 -9999 -9999 -9999
-9999 -9999 -9999 -9999 -9999 -9999 -9999 -9999 -9999 -9999 54.24 35.31 73.69 112.21 313.96 347.88 346.29 445.84 554.42 634.18 628.33 686.19 574.2 502.4 385.51 364.73 334.05 339.41 314.94 297.12 293.21 284.48 224.76 280.57 359.14 305.96 206.97 128.09 124.41 116.47 105.44 133.95 134.62 373.65 367.62 273.31 257.72 207.95 246.52 324.29 350.12 361.25 350.82 357.27 326.32 248.51 209.45 127.33 152.2 223.97 213.55 176.99 180.85 165.53 138.43 128.97 122.92 160.87 226.27 363.37 785.42 475.97 410.33 484.84 489.37 359.82 345.56 409.1 501.85 464.56 448.37 439.08 408.98 399.15 382.71 387.22 393.55 392.34 393.97 403.71 462.11 528.4 576.45 670.67 714.43 813.76 872.18 866.43 799.55 806.34 848.91 781.34 698 611.5 577.11 540.8 516.45 481.84 446.65 418.98 409.25 400.11 393.77 393.3 396.95 400.63 403.11 404.72 404.76 404.14 405.09 405.51 409.6 424.55 555.49 1170.49 1337.1 1621.29 1903.3 1857.7 1629.28 1786.97 1755.52 2279.47 2399.85 1756.16 1698.38 1992.69 1870.43 1515.06 1406.23 1305.3 1220.78 1173.04 1191.26 1200.94 1232.11 1211.07 1083.51 987.69 893.83 822.07 755.23 746.19 775.04 761.42 687.93 596.68 491.42 412.81 419.26 396.13 256.693548387097 -9999 -9999 -9999 -9999 -9999 -9999 -9999 -9999 -9999 -9999 -9999 -9999 -9999
-9999 -9999 -9999 -9999 -9999 -9999 -9999 -9999 -9999 -9999 -9999 15.7 59.05 72.51 156.15 218.88 260.59 441.9 496.96 497.4 489.12 528.42 511.7 490.68 439.41 317.07 308.06 299.36 267.77 277.58 257.66 234.41 214.85 231.13 294.24 338.77 230.34 229.27 220.21 125.05 109.12 105.3 123.69 415.11 323.91 221.57 198.53 160.55 182.32 234.46 276.34 291.08 350.95 422.99 502.16 414.64 416.27 267.96 138.43 138.69 123.48 108.79 136.09 133.9 125.49 139.79 145.25 196.04 239.6 391.08 618.68 491.74 552.65 486.14 564.44 627.63 784.36 676.03 609.46 507.14 493.66 462.74 458.92 421.69 400.14 408.13 409.24 403.94 410.02 429.49 451.1 480.65 658.32 727.63 738.5 774.46 781.55 755.78 741.04 805.98 779.7 779.37 755.12 703.65 629.92 556.03 583.82 505.38 470.49 437.56 414.25 409.85 403.26 396.54 398.49 402.76 405.68 408.52 409.24 409.75 408.4 409.42 413.22 420.33 455.6 733.14 1666.28 1859.23 2210.56 1997.32 1769.32 1971.23 1836.68 2532.26 1942.34 1819.13 2717.62 2437.24 1601.38 1374.58 1392.42 1210.64 1079.3 989.12 962.8 1051.14 986.99 1031.53 1011.51 867.26 778.71 727.51 712.44 675.87 627.07 655.3 683.27 693.74 656.93 567.23 367.2 192.742268041237 -9999 -9999 -9999 -9999 -9999 -9999 -9999 -9999 -9999 -9999 -9999 -9999 -9999 -9999
-9999 -9999 -9999 -9999 -9999 -9999 -9999 -9999 -9999 -9999 -9999 -9999 18.27 40.04 96.91 179.42 310.45 392.42 373.8 377.58 416.16 515.22 536.13 587.83 454.66 283.23 290.83 259.52 233.18 269.94 235.23 174.18 213.19 193.38 228.28 290.74 259.09 340.16 203.52 142.52 126.95 114.81 106.78 402.24 421.96 176.1 160.6 119.65 164.17 161.4 163.91 235.96 258.28 353.86 433.15 419.79 375.1 219.19 186.68 314.47 292.66 147.14 122.81 135.4 153.81 185.97 184.23 416.18 601.18 511.39 806.52 765.72 985.91 852.24 970.48 1019.33 916.48 711.8 678.78 604.16 626.3 478.19 462.53 445.94 419.89 431.32 426.99 422.23 431.43 436.97 455.27 484.04 600.14 697.92 682.52 713.15 703.6 705.1 733.43 744.68 718.92 707.28 763.28 728.42 654.35 603.4 567.32 526.4 494.65 471.78 436.59 418.65 408.65 403.67 403.8 406.39 410.34 412.46 413.46 414.37 413.14 413.49 416.78 428.14 477.62 654.19 1463.38 2175.43 2046.73 1929.49 1990.56 1904.39 1980.87 2058.86 1696.53 2276.87 2792.1 2045.96 1877.7 1571.4 1391.1 1110.26 909.1 786.66 810.39 946.35 985.19 875.52 963.47 848.29 726.39 634.73 603.24 588.8 540.75 502.27 504.87 521.79 476.04 410.02 249.11 111.328125 -9999 -9999 -9999 -9999 -9999 -9999 -9999 -9999 -9999 -9999 -9999 -9999 -9999 -9999
-9999 -9999 -9999 -9999 -9999 -9999 -9999 -9999 -9999 -9999 -9999 -9999 -9999 11.2051282051282 38.2929292929293 111.91 196.67 268.98 253.99 305.96 290.7 350.6 336.91 330.05 307.72 263.19 255.47 239.96 214.72 211.11 182.75 149.68 214.67 187.38 233.21 264.93 263.29 307.16 294.59 165.64 141.03 133.24 116.96 380.14 244.24 134.34 136.56 79.98 74.32 89.35 118.55 130.26 169.22 232.28 303.03 257.16 242.34 191.35 111.32 227.83 293.18 136.64 121.66 150.55 165.19 249.88 315.2 355.18 932.94 764.15 1252.42 1320.62 1068.5 1015.62 1094.6 1249.56 1326.74 1031.74 901.25 966.24 762.46 595.93 535.48 490.6 462.85 446.38 458.93 452.01 474.09 487.51 470.39 505 562.08 619.72 659.54 671.63 658.8 701.62 721.13 695.14 688.75 681.7 715.77 743.21 724.43 632.85 577.1 533.69 503.44 495.95 475.77 438.92 418.6 412.15 413.48 413.22 414.53 415.56 418.32 419.07 417.85 416.56 419.35 435.42 484.21 639.26 1011.39 1615.13 1684.96 1973.3 1661.92 1609.24 1832.72 1857.95 1898.3 2625.33 2603.61 2863.05 2340.01 1914.42 1367.48 976.88 737.26 658.92 881.93 762.03 856.43 855.25 859.55 833.31 671 575.84 516.79 458.27 439.56 388.48 374.35 325.21 249.51 172.4 83.6421052631579 -9999 -9999 -9999 -9999 -9999 -9999 -9999 -9999 -9999 -9999 -9999 -9999 -9999 -9999 -9999
-9999 -9999 -9999 -9999 -9999 -9999 -9999 -9999 -9999 -9999 -9999 -9999 -9999 -9999 -9999 33.2371134020619 88.03 147.27 231.24 232.45 248.03 275.11 278.15 272.62 247.13 229.45 233.99 249.75 215.52 194.85 138.31 135.16 174.75 175.37 205.35 231.8 233.68 265.23 270.4 258.79 224.55 138.13 119.3 203.8 126.19 87.2 61.69 57.63 60.09 45.67 39.27 36.63 60.8 101.95 106.85 114.19 181.08 150.59 38.5 235.36 201.28 92.65 91.42 132.26 301.91 453.05 728.22 827.73 1141.45 1459.43 1145.4 977.99 964.64 1023.61 952.23 1004.06 1051.9 1114.63 1168.61 1068.84 879.69 696.77 597.03 533.41 488.07 474.91 505.4 499.84 498.11 557.63 529.57 532.2 597.8 633.04 637.67 629.85 659.91 683.25 695.96 697.03 664.34 652.62 663.54 687.01 732.04 667.5 577.46 539.52 538.16 511.48 492.6 484.81 450.51 434.45 427.48 435.94 428.46 420.63 423.03 424.42 423.63 421.04 418.43 437.33 496.69 683.41 1143.57 1472.95 1237.96 1165.07 1308.32 1443.78 1646.4 1533.53 2187.94 2589.54 2683.75 2772.49 1720.63 1493.26 1157.83 982.46 606.07 557.4 645.92 585.78 570.66 664.02 569.98 616.77 591.18 510.23 455.01 401.81 359.96 313.25 271.07 212.98 132.79 65.87 20.7666666666667 -9999 -9999 -9999 -9999 -9999 -9999 -9999 -9999 -9999 -9999 -9999 -9999 -9999 -9999 -9999
-9999 -9999 -9999 -9999 -9999 -9999 -9999 -9999 -9999 -9999 -9999 -9999 -9999 -9999 -9999 -9999 26.4252873563218 75.15 144.84 217.96 233.82 254.23 259.37 245.16 228.33 209.94 214.49 228.62 229.16 172.83 105.35 121.32 123.41 143.31 165.2 202.06 194.58 192.79 233.43 186.92 272.18 299.83 100.4 59.97 58.54 33.0824742268041 14.9222222222222 17.1774193548387 10.88 10.48 6.38 8.56 11.0298507462687 15.4742268041237 36.36 73.11 128.9 168.82 61.49 162.68 116.33 68.42 57.38 183.84 507.99 736.54 1127.4 1625.57 1146.53 895.1 957.84 927.88 870.12 895.51 918.27 966.84 975.4 1020.2 1041.36 1013.01 858.72 702.28 600.88 548.74 527.91 524.56 524.92 556.09 529.07 558.58 522.47 544.5 584.11 599.48 625.25 635.19 670.61 651.53 634.62 669.42 654.03 643.84 658.24 664.08 688.15 673.34 595.58 581.89 561.41 550.08 526.73 523.09 491.53 479.41 461.51 447.91 447.66 425.96 429.14 429.85 428.71 424.84 421.3 446.64 582.08 766.82 922.45 1281.85 769.18 1110.06 1654.86 1580.79 1736.77 1486.08 2426.72 2070 1878.76 1345.4 1069.33 1136.17 1006.78 810.22 715.29 482.45 408.23 391.24 392.82 511.74 483.39 515.37 522.01 468.59 402.18 355.87 311.96 251.74 210.04 155.17 79.14 46.4285714285714 -9999 -9999 -9999 -9999 -9999 -9999 -9999 -9999 -9999 -9999 -9999 -9999 -9999 -9999 -9999 -9999
-9999 -9999 -9999 -9999 -9999 -9999 -9999 -9999 -9999 -9999 -9999 -9999 -9999 -9999 -9999 -9999 -9999 17.2727272727273 62.78 139.96 155.88 220.02 236.05 213.13 201.36 196.57 177.93 200.4 222.11 146.5 71.04 85.01 81.78 111.73 140.31 167.35 133.64 144.98 133.05 145.57 196.86 154.33 41.58 10.6629213483146 9.96153846153846 -9999 -9999 -9999 -9999 -9999 -9999 -9999 -9999 6.36363636363636 11.5360824742268 17.57 52.48 50.81 80.95 162.31 79.85 51.06 121.92 118.8 201.74 923.14 1475.67 1299.74 934.82 751.8 863.54 889.68 787.93 799.23 826.23 876.96 923.17 986.35 836.93 860.09 841.81 790.35 637.73 640.04 615.43 598.08 560.45 523.72 490.34 527.31 523.8 511.05 527.61 550 590.33 603.91 630.65 603.49 600.42 638.46 603.63 605.51 633.43 654.63 666.39 685.72 662.54 626.2 569.97 575.54 553.44 566.48 531.9 516.67 505.49 491.08 460.91 437.35 435.76 436.09 436.49 436.03 429.36 438.61 580.09 927.46 1116.94 925.68 555.89 1065.6 1535.09 1626.67 1429.97 1763.73 2103.73 1832.6 1596.97 1318.96 1140.76 973.49 776.19 666.79 644.12 782.28 484.5 367.73 314.8 419.83 408.43 398.61 482.28 406.77 345.78 307.65 263.83 209.92 162.87 113.54 84.79 67.7962962962963 -9999 -9999 -9999 -9999 -9999 -9999 -9999 -9999 -9999 -9999 -9999 -9999 -9999 -9999 -9999 -9999
-9999 -9999 -9999 -9999 -9999 -9999 -9999 -9999 -9999 -9999 -9999 -9999 -9999 -9999 -9999 -9999 -9999 -9999 -9999 62.5876288659794 100.79 172.5 241.65 201.25 153.52 180 111.15 145.38 148.86 62.43 40.14 52.86 53.16 62.55 81 88.93 99.92 107.79 110.61 102.76 69.265306122449 44.4137931034483 -9999 -9999 -9999 -9999 -9999 -9999 -9999 -9999 -9999 -9999 -9999 -9999 11.1212121212121 9.17 15.84 21.79 53.77 116.75 82.73 80.79 229.21 256.95 266.56 542.71 1458.09 1163.66 862.53 713.11 808.87 814.88 719.17 707.33 717.98 760.7 895.39 902.32 738.18 709.36 778.85 737.28 703.87 676.65 628.06 594.78 579.78 483.23 441.34 465.05 475.38 508.56 560.16 537.84 565.14 613.11 615.11 576.19 585.73 607.03 611.1 628.73 625.83 618.68 644.89 648.14 669.41 677.27 603.32 590.08 612.7 604.15 599.65 598.54 576.12 546.31 518.71 477.05 445.64 447.74 452.44 460.34 451.5 439.53 473.67 801.04 865.62 619.75 503.91 842.07 1011.53 1323.79 1359.88 1772.72 1504.78 1518.98 1439.35 1361.66 1191.39 968.09 765.87 594.22 415.39 521.03 596 528.23 505.02 384.64 299.87 322.78 437.73 396.61 302.4 255.35 221.24 179.5 125.56 138.33 77.2777777777778 -9999 -9999 -9999 -9999 -9999 -9999 -9999 -9999 -9999 -9999 -9999 -9999 -9999 -9999 -9999 -9999 -9999
-9999 -9999 -9999 -9999 -9999 -9999 -9999 -9999 -9999 -9999 -9999 -9999 -9999 -9999 -9999 -9999 -9999 -9999 -9999 -9999 48.8297872340426 98.7 155.18 147.48 140.7 130.38 68.58 59.0430107526882 50.3846153846154 24.9803921568627 -9999 -9999 -9999 24.2926829268293 24.9428571428571 40.4078947368421 53.41 69.48 46.9764705882353 38.8421052631579 -9999 -9999 -9999 -9999 -9999 -9999 -9999 -9999 -9999 -9999 -9999 -9999 -9999 -9999 -9999 13.09 16.74 18.77 29.14 50.51 68.08 37.93 70.24 292.32 572.17 906.86 906.45 1008.32 724.73 616.35 604.26 620.32 643.3 665.72 707.03 757.16 793.75 796.49 709.02 620.5 691.98 708.52 662.58 691.07 677.78 571.81 484.86 410.48 400.35 415.82 432.57 488.99 557.62 531.26 556.6 585.96 551.45 545.37 576.95 576.46 602.59 611.02 608.49 617.81 652.92 646.83 664.67 685.53 661.4 626.42 637.04 657.95 682.59 690.5 691.76 648.03 592.12 508.29 469.5 479.13 496.7 505.16 536.26 539.25 489.17 523.82 529.56 535.28 418.28 856 895.82 1196.84 1153.98 1607.68 1415.53 1227.59 1062.57 1357.02 1107.42 1118.34 910.31 516.78 349.47 318.31 446.73 479.96 455.96 424.72 342.71 267.72 297.44 404.1 275.36 209.82 179.66 155.18 167.21 215.131313131313 -9999 -9999 -9999 -9999 -9999 -9999 -9999 -9999 -9999 -9999 -9999 -9999 -9999 -9999 -9999 -9999 -9999 -9999
-9999 -9999 -9999 -9999 -9999 -9999 -9999 -9999 -9999 -9999 -9999 -9999 -9999 -9999 -9999 -9999 -9999 -9999 -9999 -9999 -9999 30.4181818181818 45.3555555555556 56.31 65.6868686868687 40.4929577464789 -9999 -9999 -9999 -9999 -9999 -9999 -9999 -9999 -9999 -9999 -9999 -9999 -9999 -9999 -9999 -9999 -9999 -9999 -9999 -9999 -9999 -9999 -9999 -9999 -9999 -9999 -9999 -9999 -9999 9.72413793103448 13.48 13.27 9.55 14.43 24.0537634408602 27.135593220339 15.1492537313433 88.2 340.34 304.12 296.23 554.89 657.46 490.3 603.29 624.65 665.02 686.6 699.77 686.11 665.66 689 666.53 656.88 578.58 638.29 595.98 623.85 583.8 435.64 451.41 454.78 521.54 471.23 413.46 487.88 476.01 504.28 525.51 508.6 525.57 539.04 550.12 567.2 585.38 601.3 617.17 628.5 653.76 667.44 664.66 683.3 705.31 662.17 663.11 707.33 768.33 824.82 791.11 758.84 757.53 566.81 587.36 582.65 625.16 626.88 746.28 743.6 562.34 471.62 655.14 610.24 389.41 673.07 648.87 1115.84 1087.21 1443.08 1460.54 1229.33 956.03 1025.28 1051.84 863.81 839.08 590.71 280.9 263.21 356.53 392.98 469.18 625.57 513.71 338.33 231.73 344.71 253.28 177.03 148 193.73 257.35 152.081632653061 -9999 -9999 -9999 -9999 -9999 -9999 -9999 -9999 -9999 -9999 -9999 -9999 -9999 -9999 -9999 -9999 -9999 -9999
-9999 -9999 -9999 -9999 -9999 -9999 -9999 -9999 -9999 -9999 -9999 -9999 -9999 -9999 -9999 -9999 -9999 -9999 -9999 -9999 -9999 -9999 -9999 -9999 -9999 -9999 -9999 -9999 -9999 -9999 -9999 -9999 -9999 -9999 -9999 -9999 -9999 -9999 -9999 -9999 -9999 -9999 -9999 -9999 -9999 -9999 -9999 -9999 -9999 -9999 -9999 -9999 -9999 -9999 -9999 -9999 -9999 9.04 -9999 -9999 -9999 -9999 -9999 371.289473684211 474.5 43.93 238.56 537.7 479.19 526.42 597.97 682.35 704.59 701.62 685.9 657.4 637.25 626.47 590.65 584.72 534.38 574.79 588.46 543.92 520.72 417.68 394.93 456.51 485.22 470.71 418.25 405.74 449.57 489.62 451.44 440.73 481.35 530.86 545.89 554.76 564.61 592.12 606.82 623.16 628.98 653.71 670.34 687.41 703.17 709.62 727.06 750.48 777.94 831.96 831.27 815.38 883.33 668.19 687.5 806.73 867.88 859.06 1168.5 1089.11 732 519.12 544.36 682.87 401.25 528.08 705.67 878.83 954.52 1438.78 1421.32 1290.87 1137.15 1010.06 1058.53 844.8 594.69 509.84 259 202.57 271.41 339.97 467.04 564.27 509.46 386.67 226.96 247.02 242.14 150.98 137.27 222.31 116.422535211268 -9999 -9999 -9999 -9999 -9999 -9999 -9999 -9999 -9999 -9999 -9999 -9999 -9999 -9999 -9999 -9999 -9999 -9999 -9999
-9999 -9999 -9999 -9999 -9999 -9999 -9999 -9999 -9999 -9999 -9999 -9999 -9999 -9999 -9999 -9999 -9999 -9999 -9999 -9999 -9999 -9999 -9999 -9999 -9999 -9999 -9999 -9999 -9999 -9999 -9999 -9999 -9999 -9999 -9999 -9999 -9999 -9999 -9999 -9999 -9999 -9999 -9999 -9999 -9999 -9999 -9999 -9999 -9999 -9999 -9999 -9999 -9999 -9999 -9999 -9999 -9999 -9999 -9999 -9999 -9999 -9999 -9999 -9999 86.6862745098039 23.87 107.87 233.21 513.32 707.74 701.8 689.43 692.6 710.12 725.54 686.25 664.42 658.01 619.07 568.84 506.63 592.7 591.13 526.9 505.54 436.08 375.08 379.11 378.53 402.68 409.11 403.89 446.74 490.49 449.79 440.94 464.32 504.2 518.1 537.72 558.47 578.78 603.25 612.52 625.75 640.4 662.82 677.11 682.01 697.45 715.6 732 752.79 800.05 887.22 995 975.04 859.49 784.98 778.76 1180.98 1283.78 1094.59 1352.86 1060.51 629.4 648.49 605.35 379.1 529.28 658.49 608.07 777.54 943.87 1224.56 1215.32 1082.88 888.47 800.08 790.18 521.5 366.77 272.38 208.09 217.43 347.4 465.02 570.96 479.22 355.29 241.93 180.7 219.07 151.48 142.04 60.0365853658537 -9999 -9999 -9999 -9999 -9999 -9999 -9999 -9999 -9999 -9999 -9999 -9999 -9999 -9999 -9999 -9999 -9999 -9999 -9999 -9999
-9999 -9999 -9999 -9999 -9999 -9999 -9999 -9999 -9999 -9999 -9999 -9999 -9999 -9999 -9999 -9999 -9999 -9999 -9999 -9999 -9999 -9999 -9999 -9999 -9999 -9999 -9999 -9999 -9999 -9999 -9999 -9999 -9999 -9999 -9999 -9999 -9999 -9999 -9999 -9999 -9999 -9999 -9999 -9999 -9999 -9999 -9999 -9999 -9999 -9999 -9999 -9999 -9999 -9999 -9999 -9999 -9999 -9999 -9999 -9999 -9999 -9999 -9999 -9999 -9999 27.5970149253731 84.88 316.62 629.16 684.61 678.35 670.61 678.12 690.27 707.56 678.05 633.85 590.34 592.92 637.41 551.59 565.88 533.17 493.11 464.11 413.86 375.92 364.36 363.47 410 430.91 411.89 416.65 464.2 472.1 496.82 515.69 502.33 464.02 461.56 518.71 571.72 592.46 613.58 638.79 650.48 664.19 694.81 710.7 720.83 740.87 766.22 798.93 856.24 949.63 1141.29 1077.45 762.78 747.9 756.19 954.49 1026.38 1173.73 1347.48 1377.79 848.89 701.69 543.08 395.65 560.61 543.2 449.56 904.89 762.58 687.12 759.63 838.2 792.52 632.8 636.43 586.56 463.66 434.17 233.4 224.84 366.19 477.76 561.79 462.19 301.36 174.63 143.78 190.62 189.84 49.9666666666667 -9999 -9999 -9999 -9999 -9999 -9999 -9999 -9999 -9999 -9999 -9999 -9999 -9999 -9999 -9999 -9999 -9999 -9999 -9999 -9999 -9999
-9999 -9999 -9999 -9999 -9999 -9999 -9999 -9999 -9999 -9999 -9999 -9999 -9999 -9999 -9999 -9999 -9999 -9999 -9999 -9999 -9999 -9999 -9999 -9999 -9999 -9999 -9999 -9999 -9999 -9999 -9999 -9999 -9999 -9999 -9999 -9999 -9999 -9999 -9999 -9999 -9999 -9999 -9999 -9999 -9999 -9999 -9999 -9999 -9999 -9999 -9999 -9999 -9999 -9999 -9999 -9999 -9999 -9999 -9999 -9999 -9999 -9999 -9999 -9999 -9999 -9999 121.7 445.68 667.95 698.26 694.76 675.04 653.92 636.4 623.58 616.93 632.26 621.31 529.37 571.26 477.11 488.95 498.49 443.12 394.43 375.88 356.77 366.04 384.03 398.7 401.02 397.38 417.49 427.86 447.94 480.79 514.06 511.59 494.11 449.26 438.2 478.04 564.11 622.91 642.73 671.11 687.29 702.64 734.41 759.8 799.43 833.65 908.06 970.8 1011.65 1188.34 1038.26 737.84 976.86 980.07 960.68 1037.1 1134.23 1215 1281.46 1162.54 822.02 552.96 433.13 429.06 582.63 473.11 498.09 557.15 572.45 550.07 562.4 610.62 535.48 484.29 422.83 414.93 481.04 274.91 272.22 400.82 422.79 296.3 246.12 170.25 112.77 114.44 177.35 71.1157894736842 -9999 -9999 -9999 -9999 -9999 -9999 -9999 -9999 -9999 -9999 -9999 -9999 -9999 -9999 -9999 -9999 -9999 -9999 -9999 -9999 -9999 -9999
-9999 -9999 -9999 -9999 -9999 -9999 -9999 -9999 -9999 -9999 -9999 -9999 -9999 -9999 -9999 -9999 -9999 -9999 -9999 -9999 -9999 -9999 -9999 -9999 -9999 -9999 -9999 -9999 -9999 -9999 -9999 -9999 -9999 -9999 -9999 -9999 -9999 -9999 -9999 -9999 -9999 -9999 -9999 -9999 -9999 -9999 -9999 -9999 -9999 -9999 -9999 -9999 -9999 -9999 -9999 -9999 -9999 -9999 -9999 -9999 -9999 -9999 -9999 -9999 -9999 52.2777777777778 224.87 570.34 609.94 632.16 648.48 652.4 658.7 649.43 618.03 592.92 593.73 613.16 530 523.46 424.21 455.37 451.63 396.82 365.72 351.25 365.87 378.53 387.93 397.38 396.4 399.57 398.46 438.84 433.05 441 452.87 464.34 438.53 469.08 471.95 451.88 506.75 591.11 630.19 661.51 691.85 731.6 758.82 794.53 827.7 861 982.42 1138.77 1203.06 1386.33 1194.97 736.44 920.8 1057.17 1057.75 1047.89 1094.31 1163.03 1187.81 1316.59 867.83 706.37 565.5 542.9 756.07 523.77 481.25 681.46 501.36 450.76 444.98 470.8 492.71 414.79 388.87 354.58 400.78 232.9 297.92 351.68 280.23 194.39 133.49 93.61 94.21 128.52 78.7126436781609 -9999 -9999 -9999 -9999 -9999 -9999 -9999 -9999 -9999 -9999 -9999 -9999 -9999 -9999 -9999 -9999 -9999 -9999 -9999 -9999 -9999 -9999 -9999
-9999 -9999 -9999 -9999 -9999 -9999 -9999 -9999 -9999 -9999 -9999 -9999 -9999 -9999 -9999 -9999 -9999 -9999 -9999 -9999 -9999 -9999 -9999 -9999 -9999 -9999 -9999 -9999 -9999 -9999 -9999 -9999 -9999 -9999 -9999 -9999 -9999 -9999 -9999 -9999 -9999 -9999 -9999 -9999 -9999 -9999 -9999 -9999 -9999 -9999 -9999 -9999 -9999 -9999 -9999 -9999 -9999 -9999 -9999 -9999 -9999 -9999 -9999 -9999 -9999 50.0714285714286 291.59 516.85 588.16 601.88 607.33 608.82 608.06 587.02 568.71 589.95 596.85 500.26 463 471.96 425.99 402.92 410.84 372.02 348.28 341.14 340.54 337.22 345.98 351.5 355.5 373.95 377.12 397.19 380.49 378.15 381.73 402.41 458.48 507.33 517.08 501.27 484.16 519.64 557.03 593.22 590.81 709.71 773.37 819.09 891.72 936.77 1008.12 1107.84 1322.84 1658.13 1423.17 696.93 895.32 1049.32 1066.16 1089.5 1092.49 1091.49 1203.9 1345.81 1285.21 825.67 658.42 613.33 1125.04 654.54 636.02 659.98 387.86 361.46 355.89 344.51 398.17 338.06 277.15 225.15 230.29 144.02 236.11 225.38 178.14 122.92 85.63 77.97 90.3232323232323 65.056338028169 -9999 -9999 -9999 -9999 -9999 -9999 -9999 -9999 -9999 -9999 -9999 -9999 -9999 -9999 -9999 -9999 -9999 -9999 -9999 -9999 -9999 -9999 -9999 -9999
-9999 -9999 -9999 -9999 -9999 -9999 -9999 -9999 -9999 -9999 -9999 -9999 -9999 -9999 -9999 -9999 -9999 -9999 -9999 -9999 -9999 -9999 -9999 -9999 -9999 -9999 -9999 -9999 -9999 -9999 -9999 -9999 -9999 -9999 -9999 -9999 -9999 -9999 -9999 -9999 -9999 -9999 -9999 -9999 -9999 -9999 -9999 -9999 -9999 -9999 -9999 -9999 -9999 -9999 -9999 -9999 -9999 -9999 -9999 -9999 -9999 -9999 -9999 -9999 -9999 71.2637362637363 467.42 582.02 642.17 638.15 645.76 620.16 579.01 537.37 522.17 522.99 584.32 474.8 470.3 479.04 393.84 382.48 370.81 341.11 337.93 336.65 332.51 338.42 337.71 348.73 365.62 376.6 379.5 391.19 423.13 443.45 430.66 392.73 412.54 450.43 496.19 512.49 475 460.32 484.38 521.65 529.82 579.06 677.58 775.14 873.93 896.96 954.4 1063.36 1277.64 1421.41 755.13 891.3 1072.26 1061.58 1048.41 1055.92 1071.15 1065.83 1079.09 1333.11 1377.27 1061.88 750.67 639.23 1277.23 977.55 581.8 442.04 335.9 311.77 292.35 270.31 259.78 228.58 190.85 141.47 169.51 114.29 134.66 133.05 95.15 69.77 64.55 68.5714285714286 -9999 -9999 -9999 -9999 -9999 -9999 -9999 -9999 -9999 -9999 -9999 -9999 -9999 -9999 -9999 -9999 -9999 -9999 -9999 -9999 -9999 -9999 -9999 -9999 -9999 -9999
-9999 -9999 -9999 -9999 -9999 -9999 -9999 -9999 -9999 -9999 -9999 -9999 -9999 -9999 -9999 -9999 -9999 -9999 -9999 -9999 -9999 -9999 -9999 -9999 -9999 -9999 -9999 -9999 -9999 -9999 -9999 -9999 -9999 -9999 -9999 -9999 -9999 -9999 -9999 -9999 -9999 -9999 -9999 -9999 -9999 -9999 -9999 -9999 -9999 -9999 -9999 -9999 -9999 -9999 -9999 -9999 -9999 -9999 -9999 -9999 -9999 -9999 -9999 -9999 -9999 125.28 523.48 676.23 671.42 663.03 633.06 552.31 539.06 531 510.34 513.79 566.17 561.53 493.37 491.73 407.89 361.49 346.8 330.88 332.12 331.53 329.31 329.67 337.97 349.15 364.36 376.42 392.26 407.47 425.14 441.36 446 458.75 400.8 404.55 443.08 454.69 464.56 476.23 507.22 538.82 557.54 602.79 619.75 660.87 779.61 855.32 916.55 983.36 1165.43 704.28 987.75 1112.71 1076.8 1071.01 1053.62 1046.15 1051.31 1091.74 1563.46 1910.54 1812.88 1637.51 1030.9 1135.79 1422.69 1143.1 717.28 531.69 337.23 259.66 255.34 240.86 196.64 158.64 129 94.09 82.59 75.03 69.36 60.31 51.21 54.1 63.6363636363636 -9999 -9999 -9999 -9999 -9999 -9999 -9999 -9999 -9999 -9999 -9999 -9999 -9999 -9999 -9999 -9999 -9999 -9999 -9999 -9999 -9999 -9999 -9999 -9999 -9999 -9999 -9999
-9999 -9999 -9999 -9999 -9999 -9999 -9999 -9999 -9999 -9999 -9999 -9999 -9999 -9999 -9999 -9999 -9999 -9999 -9999 -9999 -9999 -9999 -9999 -9999 -9999 -9999 -9999 -9999 -9999 -9999 -9999 -9999 -9999 -9999 -9999 -9999 -9999 -9999 -9999 -9999 -9999 -9999 -9999 -9999 -9999 -9999 -9999 -9999 -9999 -9999 -9999 -9999 -9999 -9999 -9999 -9999 -9999 -9999 -9999 -9999 -9999 -9999 -9999 -9999 -9999 50.46 377.97 638.06 535.76 558.09 540.22 507.25 519.36 529.77 531.16 528.53 566.03 527.37 454.44 445.52 388.41 353.83 335.01 323.88 328.82 326.07 325.28 337.62 349.23 360.55 360.83 368 386.54 410.03 427.05 440.36 463.84 488.16 451.73 404.93 431.04 472.65 460.45 477.13 503.52 550.83 618.47 602.11 636.94 698.68 814.92 844.47 917.75 993.38 932.21 1094.14 1195.76 1210.01 1158.08 1096.76 1086.19 1078.11 1077.6 1098.66 1657.29 2144.31 1970.03 1826.21 1072.93 1541.16 1683.73 1190.52 888.21 639.59 408.61 288.61 219.93 217.03 173.32 129.62 91.68 58.61 40.81 38.65 39.24 32.57 39.4040404040404 -9999 -9999 -9999 -9999 -9999 -9999 -9999 -9999 -9999 -9999 -9999 -9999 -9999 -9999 -9999 -9999 -9999 -9999 -9999 -9999 -9999 -9999 -9999 -9999 -9999 -9999 -9999 -9999 -9999
-9999 -9999 -9999 -9999 -9999 -9999 -9999 -9999 -9999 -9999 -9999 -9999 -9999 -9999 -9999 -9999 -9999 -9999 -9999 -9999 -9999 -9999 -9999 -9999 -9999 -9999 -9999 -9999 -9999 -9999 -9999 -9999 -9999 -9999 -9999 -9999 -9999 -9999 -9999 -9999 -9999 -9999 -9999 -9999 -9999 -9999 -9999 -9999 -9999 -9999 -9999 -9999 -9999 -9999 -9999 -9999 -9999 -9999 -9999 -9999 -9999 -9999 -9999 -9999 -9999 56.36 221.8 514.29 469.01 429.37 490.98 492.39 522.13 523.92 539.17 542.37 531.16 487.18 425.02 396.56 354.55 338.28 330.91 321.31 322.51 320.17 328.41 340.56 347.94 354.12 364.71 377.2 375.96 396.26 418.16 440.81 472.87 499.33 502.4 433.54 421.05 447.89 437.91 467.6 516.31 551.31 662.28 694.36 658.96 733.67 884.69 1030.02 1091.62 1473.95 1706.58 1337.14 1302.18 1270.61 1228.26 1179.22 1149.4 1151.24 1149.71 1141.7 1267.32 1554.21 1998.3 1877.04 1275.85 1831.92 1718.73 1361.07 1051.26 920.32 528.06 371.33 244.33 176.11 164.19 109.03 78.36 49.25 29.86 23.92 24.66 30.2340425531915 -9999 -9999 -9999 -9999 -9999 -9999 -9999 -9999 -9999 -9999 -9999 -9999 -9999 -9999 -9999 -9999 -9999 -9999 -9999 -9999 -9999 -9999 -9999 -9999 -9999 -9999 -9999 -9999 -9999 -9999
-9999 -9999 -9999 -9999 -9999 -9999 -9999 -9999 -9999 -9999 -9999 -9999 -9999 -9999 -9999 -9999 -9999 -9999 -9999 -9999 -9999 -9999 -9999 -9999 -9999 -9999 -9999 -9999 -9999 -9999 -9999 -9999 -9999 -9999 -9999 -9999 -9999 -9999 -9999 -9999 -9999 -9999 -9999 -9999 -9999 -9999 -9999 -9999 -9999 -9999 -9999 -9999 -9999 -9999 -9999 -9999 -9999 -9999 -9999 -9999 -9999 -9999 -9999 -9999 34.08 35.34 64.32 198.36 311.97 297.41 371.64 403.84 494.04 539.92 550.68 538.04 447.49 426.93 402.02 367.68 337.64 328.2 324.39 320.81 320.21 318.29 320.5 335.43 346.35 355.18 362.27 375.09 381.77 390.09 403.05 424.61 459.01 495.22 482.7 426.18 449.6 473.07 470.64 462.46 511.55 590.66 689.16 765.07 714.02 769.48 928.19 1219.76 1677.37 1400.95 1148.14 1282.06 1266.18 1228.47 1189.98 1168.84 1152.29 1157.01 1139.73 1151.52 1273.85 1475.11 1837.13 2293.82 1678.21 2153.05 1883.94 2347.15 1594.28 781.29 429.68 332.92 270.38 201.4 147.53 120.84 86.43 46.45 28.33 17.29 15.3645833333333 -9999 -9999 -9999 -9999 -9999 -9999 -9999 -9999 -9999 -9999 -9999 -9999 -9999 -9999 -9999 -9999 -9999 -9999 -9999 -9999 -9999 -9999 -9999 -9999 -9999 -9999 -9999 -9999 -9999 -9999 -9999
-9999 -9999 -9999 -9999 -9999 -9999 -9999 -9999 -9999 -9999 -9999 -9999 -9999 -9999 -9999 -9999 -9999 -9999 -9999 -9999 -9999 -9999 -9999 -9999 -9999 -9999 -9999 -9999 -9999 -9999 -9999 -9999 -9999 -9999 -9999 -9999 -9999 -9999 -9999 -9999 -9999 -9999 -9999 -9999 -9999 -9999 -9999 -9999 -9999 -9999 -9999 -9999 -9999 -9999 -9999 -9999 -9999 -9999 -9999 -9999 -9999 -9999 -9999 -9999 66.5274725274725 74.12 64.62 106.87 365.69 386.52 315.26 304.63 373.26 434.5 476.21 472.29 471.56 435.61 390.48 356.16 335.17 321.29 320.87 316.02 312.11 316.61 331.01 334.54 331.43 340.44 343.07 353.19 362.29 380.58 402.68 431.69 450.68 435.15 430.19 434.23 452.11 479.01 455.78 474.41 511.21 553.96 631 774.8 795.42 827.68 1051.81 1565.03 1678.85 957.62 1348.48 1468.05 1321.97 1266.53 1185.29 1141.31 1135.76 -9999 -9999 1142.54 1180.17 1278.35 1688.31 2423.92 2162.08 2462.11 2289.14 2232.82 1360.92 667.52 540.57 355.78 255.68 204.15 154.45 130.98 85.74 47.23 26.27 15.2222222222222 -9999 -9999 -9999 -9999 -9999 -9999 -9999 -9999 -9999 -9999 -9999 -9999 -9999 -9999 -9999 -9999 -9999 -9999 -9999 -9999 -9999 -9999 -9999 -9999 -9999 -9999 -9999 -9999 -9999 -9999 -9999 -9999
-9999 -9999 -9999 -9999 -9999 -9999 -9999 -9999 -9999 -9999 -9999 -9999 -9999 -9999 -9999 -9999 -9999 -9999 -9999 -9999 -9999 -9999 -9999 -9999 -9999 -9999 -9999 -9999 -9999 -9999 -9999 -9999 -9999 -9999 -9999 -9999 -9999 -9999 -9999 -9999 -9999 -9999 -9999 -9999 -9999 -9999 -9999 -9999 -9999 -9999 -9999 -9999 -9999 -9999 -9999 -9999 -9999 -9999 -9999 -9999 -9999 -9999 -9999 12.9666666666667 63.66 45.5 47.57 131.12 446.22 555.06 386.27 338.9 365.96 349.8 374.96 424.1 499.99 433.64 386.97 349.21 325.24 315.68 312.17 306.64 309.99 311.18 342.03 353.91 342.63 343.14 352.29 368.92 375.42 382.12 396.56 404.75 396.32 400.43 428.32 455.73 454.42 459.92 464.56 473.28 498.55 543.9 639.96 774.16 837.64 947.05 1209.87 1698.39 1198.43 1274.65 1537.77 1484.8 1333.98 1241.55 1145.53 -9999 -9999 -9999 -9999 -9999 1308.07 1682.36 1895.86 2234.74 2491.22 2174.36 2138.42 1308.9 1053.5 872.17 619.58 408.01 265.13 162.33 134.57 116.78 86.71 50.65 20.34 -9999 -9999 -9999 -9999 -9999 -9999 -9999 -9999 -9999 -9999 -9999 -9999 -9999 -9999 -9999 -9999 -9999 -9999 -9999 -9999 -9999 -9999 -9999 -9999 -9999 -9999 -9999 -9999 -9999 -9999 -9999 -9999 -9999
-9999 -9999 -9999 -9999 -9999 -9999 -9999 -9999 -9999 -9999 -9999 -9999 -9999 -9999 -9999 -9999 -9999 -9999 -9999 -9999 -9999 -9999 -9999 -9999 -9999 -9999 -9999 -9999 -9999 -9999 -9999 -9999 -9999 -9999 -9999 -9999 -9999 -9999 -9999 -9999 -9999 -9999 -9999 -9999 -9999 -9999 -9999 -9999 -9999 -9999 -9999 -9999 -9999 -9999 -9999 -9999 -9999 -9999 -9999 -9999 -9999 -9999 -9999 12.3174603174603 23.08 51.42 87.57 192.54 391.02 601.2 519.51 444.17 436.94 414.25 360.18 468.01 534.35 481.97 396.74 369.44 322.99 308.64 299.25 318.32 319.79 321.34 327.19 331.62 342.18 345.01 358.4 366.19 377.83 392.89 392.34 410.58 419.41 415.29 432.16 460.19 495.2 466.25 471.27 475.81 506.8 548.15 619.81 653.2 692.6 890.35 1229.5 1686.17 1511.49 1932.28 1653.75 1398.3 1349.88 1180.64 1158.9 -9999 -9999 -9999 -9999 1166 1363.57 1658.4 1752.87 1930.06 1889.11 1721.76 1760.69 1422.73 1193.95 979.76 559.89 359.3 225.03 124.57 92.75 85.3 71.32 37.99 16.8082191780822 -9999 -9999 -9999 -9999 -9999 -9999 -9999 -9999 -9999 -9999 -9999 -9999 -9999 -9999 -9999 -9999 -9999 -9999 -9999 -9999 -9999 -9999 -9999 -9999 -9999 -9999 -9999 -9999 -9999 -9999 -9999 -9999 -9999
-9999 -9999 -9999 -9999 -9999 -9999 -9999 -9999 -9999 -9999 -9999 -9999 -9999 -9999 -9999 -9999 -9999 -9999 -9999 -9999 -9999 -9999 -9999 -9999 -9999 -9999 -9999 -9999 -9999 -9999 -9999 -9999 -9999 -9999 -9999 -9999 -9999 -9999 -9999 -9999 -9999 -9999 -9999 -9999 -9999 -9999 -9999 -9999 -9999 -9999 -9999 -9999 -9999 -9999 -9999 -9999 -9999 -9999 -9999 -9999 -9999 -9999 -9999 -9999 21.360824742268 47.31 112.37 187.53 306.43 635.06 688.77 678.57 626.15 505.31 384.72 492.04 553.69 479.59 431.66 421.63 344.54 296.66 306.12 357.86 321.3 305.54 307.74 313.16 328.34 353.26 364.86 380.88 399.96 415.04 415.82 417.66 409.49 437.05 464.91 471.35 503.88 499.07 472 486.6 508.24 592.62 639.91 784.79 817.98 883.05 1304.94 1924.18 2118.68 2017.99 1725.09 1403.28 1404.69 1247.9 1170.05 -9999 -9999 -9999 1142.07 1231.13 1301.03 1503.22 1654.05 2005.7 1583.29 1191.01 1668.86 1584.57 1160.7 856.01 535.47 335.71 220.91 113.04 71.43 60.1 42.25 29.9120879120879 -9999 -9999 -9999 -9999 -9999 -9999 -9999 -9999 -9999 -9999 -9999 -9999 -9999 -9999 -9999 -9999 -9999 -9999 -9999 -9999 -9999 -9999 -9999 -9999 -9999 -9999 -9999 -9999 -9999 -9999 -9999 -9999 -9999 -9999
-9999 -9999 -9999 -9999 -9999 -9999 -9999 -9999 -9999 -9999 -9999 -9999 -9999 -9999 -9999 -9999 -9999 -9999 -9999 -9999 -9999 -9999 -9999 -9999 -9999 -9999 -9999 -9999 -9999 -9999 -9999 -9999 -9999 -9999 -9999 -9999 -9999 -9999 -9999 -9999 -9999 -9999 -9999 -9999 -9999 -9999 -9999 -9999 -9999 -9999 -9999 -9999 -9999 -9999 -9999 -9999 -9999 -9999 -9999 -9999 -9999 -9999 -9999 -9999 22.6470588235294 48.59 124.5 282.95 199.95 333.37 624.88 740.2 734.72 603.73 494.82 505.82 611.63 553.16 526.61 458.09 363.69 299.08 325.68 353.71 320.3 314.01 308.73 313.79 320.47 347.52 375.24 398.54 407.12 440.89 451.97 444.39 426.1 438.18 478.27 494.27 519.35 535.22 477.12 488.09 516.33 568.27 619.47 880.36 1059.14 1128.69 1417.2 1841.31 1783.54 1729.95 1500.08 1461.17 1384.42 1270.35 1156.49 -9999 -9999 1148.38 1168.25 1245.39 1310.73 1459.1 1738.54 1970.98 1175.27 1060.12 1592.92 1400.73 1064.65 805.03 541.41 317.28 197.5 102.64 41.49 36.3 19.719298245614 -9999 -9999 -9999 -9999 -9999 -9999 -9999 -9999 -9999 -9999 -9999 -9999 -9999 -9999 -9999 -9999 -9999 -9999 -9999 -9999 -9999 -9999 -9999 -9999 -9999 -9999 -9999 -9999 -9999 -9999 -9999 -9999 -9999 -9999 -9999
-9999 -9999 -9999 -9999 -9999 -9999 -9999 -9999 -9999 -9999 -9999 -9999 -9999 -9999 -9999 -9999 -9999 -9999 -9999 -9999 -9999 -9999 -9999 -9999 -9999 -9999 -9999 -9999 -9999 -9999 -9999 -9999 -9999 -9999 -9999 -9999 -9999 -9999 -9999 -9999 -9999 -9999 -9999 -9999 -9999 -9999 -9999 -9999 -9999 -9999 -9999 -9999 -9999 -9999 -9999 -9999 -9999 -9999 -9999 -9999 -9999 -9999 -9999 -9999 -9999 35.974025974026 113.84 223.37 264.1 185.7 334.84 546.72 643.16 644.52 572.51 602.64 680.44 666.82 643.95 588.49 417.25 384 370.29 335.02 308.09 321.08 318.05 319.47 321.65 335.77 372.56 405.41 436.59 435.18 483.76 482.88 473.67 460.86 471.54 526.11 523.23 500.08 483.52 493.2 522.27 573 598.33 649.99 735.07 1100.13 1695.83 1734.21 2058.53 1647.16 1425.06 1463.31 1383.68 1307.11 1163.13 1175.24 1154.64 1159.76 1158.89 1237.43 1340.97 1500.96 1726.67 1572.1 881.05 1367.19 1407.73 1190.8 1118.15 827.43 489.73 296.95 201.14 138.16 30.1458333333333 15.5555555555556 -9999 -9999 -9999 -9999 -9999 -9999 -9999 -9999 -9999 -9999 -9999 -9999 -9999 -9999 -9999 -9999 -9999 -9999 -9999 -9999 -9999 -9999 -9999 -9999 -9999 -9999 -9999 -9999 -9999 -9999 -9999 -9999 -9999 -9999 -9999 -9999
-9999 -9999 -9999 -9999 -9999 -9999 -9999 -9999 -9999 -9999 -9999 -9999 -9999 -9999 -9999 -9999 -9999 -9999 -9999 -9999 -9999 -9999 -9999 -9999 -9999 -9999 -9999 -9999 -9999 -9999 -9999 -9999 -9999 -9999 -9999 -9999 -9999 -9999 -9999 -9999 -9999 -9999 -9999 -9999 -9999 -9999 -9999 -9999 -9999 -9999 -9999 -9999 -9999 -9999 -9999 -9999 -9999 -9999 -9999 -9999 -9999 -9999 -9999 -9999 -9999 -9999 41.6931818181818 124.08 216.99 304.43 229.87 337.16 504.99 544.39 570.8 593.07 650.21 592.89 533.69 538.37 459.77 418.79 356.01 319.53 318.28 322.27 325.36 346.74 353.19 373.75 391.14 411.38 443.43 474.34 481.08 516.39 532.37 518.46 504.39 505.53 544.97 504.45 491.6 504.87 505.6 566.68 630.08 651.01 753.64 1012.4 1456.14 1682.49 1687.96 1705.14 1587.91 1493.55 1392.95 1321.58 1188.62 1258.55 1193.75 1191.22 1224.36 1296.03 1431.95 1608.82 1668.59 1759.53 1351.89 1339.56 1303.81 1753.81 1293.32 880.12 526.88 309.77 189.1 157.49 65.3934426229508 -9999 -9999 -9999 -9999 -9999 -9999 -9999 -9999 -9999 -9999 -9999 -9999 -9999 -9999 -9999 -9999 -9999 -9999 -9999 -9999 -9999 -9999 -9999 -9999 -9999 -9999 -9999 -9999 -9999 -9999 -9999 -9999 -9999 -9999 -9999 -9999 -9999
-9999 -9999 -9999 -9999 -9999 -9999 -9999 -9999 -9999 -9999 -9999 -9999 -9999 -9999 -9999 -9999 -9999 -9999 -9999 -9999 -9999 -9999 -9999 -9999 -9999 -9999 -9999 -9999 -9999 -9999 -9999 -9999 -9999 -9999 -9999 -9999 -9999 -9999 -9999 -9999 -9999 -9999 -9999 -9999 -9999 -9999 -9999 -9999 -9999 -9999 -9999 -9999 -9999 -9999 -9999 -9999 -9999 -9999 -9999 -9999 -9999 -9999 -9999 -9999 -9999 -9999 -9999 60.8314606741573 284.17 265.61 229.78 170.27 301.06 441.21 515.04 590.94 567.97 582.89 552.94 580.24 530.2 429.87 356.61 312.63 338.25 357.21 356.54 357.23 362.19 377.99 387.64 403.26 415.78 453.16 467.55 475.07 494.33 503.2 507.1 536.32 558.17 520.25 487.96 500.52 521.11 576.01 657.16 713.59 932.1 986.76 1778.85 2280.28 1165.91 1788.37 1582.95 1489.33 1309.32 1223.17 1211.7 1256.37 1197.68 1188.8 1228.03 1272.38 1349.93 1597.71 1626.26 1844.14 1282.1 1386.23 1501.24 1698.46 1242.83 934.88 676.38 362.86 213.06 115.63 -9999 -9999 -9999 -9999 -9999 -9999 -9999 -9999 -9999 -9999 -9999 -9999 -9999 -9999 -9999 -9999 -9999 -9999 -9999 -9999 -9999 -9999 -9999 -9999 -9999 -9999 -9999 -9999 -9999 -9999 -9999 -9999 -9999 -9999 -9999 -9999 -9999 -9999
-9999 -9999 -9999 -9999 -9999 -9999 -9999 -9999 -9999 -9999 -9999 -9999 -9999 -9999 -9999 -9999 -9999 -9999 -9999 -9999 -9999 -9999 -9999 -9999 -9999 -9999 -9999 -9999 -9999 -9999 -9999 -9999 -9999 -9999 -9999 -9999 -9999 -9999 -9999 -9999 -9999 -9999 -9999 -9999 -9999 -9999 -9999 -9999 -9999 -9999 -9999 -9999 -9999 -9999 -9999 -9999 -9999 -9999 -9999 -9999 -9999 -9999 -9999 -9999 -9999 -9999 -9999 -9999 83.4431818181818 220.21 249.92 182.91 170.73 330.57 474.57 534.55 469.26 497.66 626.83 654.63 521.3 525.71 419.1 338.38 339.32 347.71 353.98 364.2 389.42 423.88 427.07 448.75 441.67 448.01 464.71 489.23 533.52 532.71 516.61 517.67 530.25 509.58 513.67 510.57 518.74 589.8 656.86 683.06 802.85 1221.11 1790.66 2118.81 1282.59 1875.84 1508.22 1292.02 1213.13 1153.72 1173.83 1198.7 1191.07 1188.49 1151.43 1134.44 1147.34 1230.65 1228.32 1458.12 1094.13 1300.74 1055.69 925.67 879.06 854.55 729.39 424.83 255.69 142.571428571429 -9999 -9999 -9999 -9999 -9999 -9999 -9999 -9999 -9999 -9999 -9999 -9999 -9999 -9999 -9999 -9999 -9999 -9999 -9999 -9999 -9999 -9999 -9999 -9999 -9999 -9999 -9999 -9999 -9999 -9999 -9999 -9999 -9999 -9999 -9999 -9999 -9999 -9999
-9999 -9999 -9999 -9999 -9999 -9999 -9999 -9999 -9999 -9999 -9999 -9999 -9999 -9999 -9999 -9999 -9999 -9999 -9999 -9999 -9999 -9999 -9999 -9999 -9999 -9999 -9999 -9999 -9999 -9999 -9999 -9999 -9999 -9999 -9999 -9999 -9999 -9999 -9999 -9999 -9999 -9999 -9999 -9999 -9999 -9999 -9999 -9999 -9999 -9999 -9999 -9999 -9999 -9999 -9999 -9999 -9999 -9999 -9999 -9999 -9999 -9999 -9999 -9999 -9999 -9999 -9999 -9999 -9999 50.3296703296703 116.24 282.4 315.44 219.24 285.36 342.17 365.72 443.16 446.43 510.45 580.41 575.79 471.11 411.9 403.99 374.13 402.37 404.6 402.86 423.65 459.47 446.33 455.21 468.16 477.66 494.37 503.5 503.63 524.81 546.52 568.05 526.96 531.99 532.78 520.43 566.98 626.19 698.61 800.58 947.05 1478.59 1444.07 891.52 1554.93 1321.59 1202.34 1196.6 1099.71 1143.51 1184.02 1210.28 1174.34 1155.15 1084.04 1171.21 1333.1 1672.64 1649.14 1181.49 1401.9 1316.62 1031.38 865.28 813.08 612.8 388.41 197.75 -9999 -9999 -9999 -9999 -9999 -9999 -9999 -9999 -9999 -9999 -9999 -9999 -9999 -9999 -9999 -9999 -9999 -9999 -9999 -9999 -9999 -9999 -9999 -9999 -9999 -9999 -9999 -9999 -9999 -9999 -9999 -9999 -9999 -9999 -9999 -9999 -9999 -9999 -9999
-9999 -9999 -9999 -9999 -9999 -9999 -9999 -9999 -9999 -9999 -9999 -9999 -9999 -9999 -9999 -9999 -9999 -9999 -9999 -9999 -9999 -9999 -9999 -9999 -9999 -9999 -9999 -9999 -9999 -9999 -9999 -9999 -9999 -9999 -9999 -9999 -9999 -9999 -9999 -9999 -9999 -9999 -9999 -9999 -9999 -9999 -9999 -9999 -9999 -9999 -9999 -9999 -9999 -9999 -9999 -9999 -9999 -9999 -9999 -9999 -9999 -9999 -9999 -9999 -9999 -9999 -9999 -9999 -9999 -9999 43.4631578947368 144.7 339.93 350.5 348.75 508.37 508.59 466.3 386.99 459.37 651.51 616.45 499.43 449.4 434.21 431.17 420.04 451.02 458.71 458.76 461.87 469.69 472.71 505.54 517.56 511.22 547.29 517.71 550.46 570.09 578.36 570.94 558.39 562.22 534.31 541.87 604.06 637.86 699.85 728.66 1008.46 1268.94 813.32 1176.51 1329.03 1164.37 1174.06 1084.96 1104.85 1158.9 1198.18 1218.47 1219.64 1093.51 1322.84 1507.46 1656.15 1593.52 1223.93 1199.75 1199.41 1171.5 769.77 903.38 666.11 235.12 85.955223880597 -9999 -9999 -9999 -9999 -9999 -9999 -9999 -9999 -9999 -9999 -9999 -9999 -9999 -9999 -9999 -9999 -9999 -9999 -9999 -9999 -9999 -9999 -9999 -9999 -9999 -9999 -9999 -9999 -9999 -9999 -9999 -9999 -9999 -9999 -9999 -9999 -9999 -9999 -9999
-9999 -9999 -9999 -9999 -9999 -9999 -9999 -9999 -9999 -9999 -9999 -9999 -9999 -9999 -9999 -9999 -9999 -9999 -9999 -9999 -9999 -9999 -9999 -9999 -9999 -9999 -9999 -9999 -9999 -9999 -9999 -9999 -9999 -9999 -9999 -9999 -9999 -9999 -9999 -9999 -9999 -9999 -9999 -9999 -9999 -9999 -9999 -9999 -9999 -9999 -9999 -9999 -9999 -9999 -9999 -9999 -9999 -9999 -9999 -9999 -9999 -9999 -9999 -9999 -9999 -9999 -9999 -9999 -9999 -9999 -9999 65.82 152.36 367.36 492.08 368.5 384.28 513.97 522.57 530.42 700.04 650.59 548.11 503.37 459.11 526.9 501.11 477.19 574.21 505.3 496.86 545.37 507.1 506.92 541.56 525.69 568.21 551.33 539.88 579.85 603.8 617.82 597.71 596.99 557.04 573.26 598.09 629.14 751.28 856.98 803.9 1373.3 -9999 907.37 1114.63 1120 1090.93 1079.6 1101.17 1145.39 1180.59 1228.82 1207.17 1077.16 1248.34 1516.66 1426.76 1390.03 1403.44 1234.71 1126.08 1041.13 805.71 660.8 854.57 195.457446808511 -9999 -9999 -9999 -9999 -9999 -9999 -9999 -9999 -9999 -9999 -9999 -9999 -9999 -9999 -9999 -9999 -9999 -9999 -9999 -9999 -9999 -9999 -9999 -9999 -9999 -9999 -9999 -9999 -9999 -9999 -9999 -9999 -9999 -9999 -9999 -9999 -9999 -9999 -9999 -9999
-9999 -9999 -9999 -9999 -9999 -9999 -9999 -9999 -9999 -9999 -9999 -9999 -9999 -9999 -9999 -9999 -9999 -9999 -9999 -9999 -9999 -9999 -9999 -9999 -9999 -9999 -9999 -9999 -9999 -9999 -9999 -9999 -9999 -9999 -9999 -9999 -9999 -9999 -9999 -9999 -9999 -9999 -9999 -9999 -9999 -9999 -9999 -9999 -9999 -9999 -9999 -9999 -9999 -9999 -9999 -9999 -9999 -9999 -9999 -9999 -9999 -9999 -9999 -9999 -9999 -9999 -9999 -9999 -9999 -9999 -9999 69.6206896551724 112.09 287.25 354.06 292.92 405.04 525.56 606.41 694.51 765.77 653.72 659.33 662.91 649.21 679.76 565.32 575.84 682.79 622.13 534.22 580.79 517.79 513.22 517.53 545.36 586.76 596.1 561.16 597.55 645.57 673.63 625.35 620.37 597.05 632.98 661.65 638.88 787.72 862.48 911.06 1198.18 938.9 839.23 1203.82 1263.12 1153.81 1084.81 1089.65 1123.49 1153.96 1216.9 1203.37 1191.6 1259.21 1410.35 1241.61 1182 1285.25 1425.8 1255.37 1228.16 898.8 619.36 360.73 120.45 -9999 -9999 -9999 -9999 -9999 -9999 -9999 -9999 -9999 -9999 -9999 -9999 -9999 -9999 -9999 -9999 -9999 -9999 -9999 -9999 -9999 -9999 -9999 -9999 -9999 -9999 -9999 -9999 -9999 -9999 -9999 -9999 -9999 -9999 -9999 -9999 -9999 -9999 -9999 -9999
-9999 -9999 -9999 -9999 -9999 -9999 -9999 -9999 -9999 -9999 -9999 -9999 -9999 -9999 -9999 -9999 -9999 -9999 -9999 -9999 -9999 -9999 -9999 -9999 -9999 -9999 -9999 -9999 -9999 -9999 -9999 -9999 -9999 -9999 -9999 -9999 -9999 -9999 -9999 -9999 -9999 -9999 -9999 -9999 -9999 -9999 -9999 -9999 -9999 -9999 -9999 -9999 -9999 -9999 -9999 -9999 -9999 -9999 -9999 -9999 -9999 -9999 -9999 -9999 -9999 -9999 -9999 -9999 -9999 -9999 -9999 73.5735294117647 84.8 147.28 255.87 321.02 437.45 505.09 703.79 812.73 682.34 552.87 716.7 727.65 755.46 784.82 752.47 735.96 741.06 675.44 561.08 561.26 564.09 596.57 610.72 570.47 631.62 638.65 595.74 648.05 727.64 696.18 687.84 666.58 665.76 652.37 600.92 618.99 687.74 732.89 920.17 1054.85 895.5 808.46 1137.18 1427.56 1215.06 1103.47 1096.41 1094.01 1128.76 1204.75 1286.28 1334.88 1339.76 1280.6 958.56 1067.22 1234.54 1254.25 1301.49 1105.1 726.2 537.16 283.59 -9999 -9999 -9999 -9999 -9999 -9999 -9999 -9999 -9999 -9999 -9999 -9999 -9999 -9999 -9999 -9999 -9999 -9999 -9999 -9999 -9999 -9999 -9999 -9999 -9999 -9999 -9999 -9999 -9999 -9999 -9999 -9999 -9999 -9999 -9999 -9999 -9999 -9999 -9999 -9999 -9999
-9999 -9999 -9999 -9999 -9999 -9999 -9999 -9999 -9999 -9999 -9999 -9999 -9999 -9999 -9999 -9999 -9999 -9999 -9999 -9999 -9999 -9999 -9999 -9999 -9999 -9999 -9999 -9999 -9999 -9999 -9999 -9999 -9999 -9999 -9999 -9999 -9999 -9999 -9999 -9999 -9999 -9999 -9999 -9999 -9999 -9999 -9999 -9999 -9999 -9999 -9999 -9999 -9999 -9999 -9999 -9999 -9999 -9999 -9999 -9999 -9999 -9999 -9999 -9999 -9999 -9999 -9999 -9999 -9999 -9999 -9999 -9999 84.25 130.28 286.9 350.17 511.76 710.97 849.45 774.9 669.17 603.13 656.41 763.99 840.28 875.19 850.44 828.55 749.38 610.63 617.75 560.87 611.8 644.72 672.65 660.22 712.4 706.18 639.46 658.14 777.88 760.32 766.45 751.22 736.96 695.89 589.2 605.46 665.09 785.45 917.12 1147.04 874.04 1009.41 1275.88 1441.73 1216.7 1182.89 1130.96 1098.24 1111.59 1167.75 1313.01 1461.22 1334.72 1203.7 924.53 1048.61 1058.08 1080.68 1259.17 914.45 555.74 370.81 209.93 -9999 -9999 -9999 -9999 -9999 -9999 -9999 -9999 -9999 -9999 -9999 -9999 -9999 -9999 -9999 -9999 -9999 -9999 -9999 -9999 -9999 -9999 -9999 -9999 -9999 -9999 -9999 -9999 -9999 -9999 -9999 -9999 -9999 -9999 -9999 -9999 -9999 -9999 -9999 -9999 -9999
-9999 -9999 -9999 -9999 -9999 -9999 -9999 -9999 -9999 -9999 -9999 -9999 -9999 -9999 -9999 -9999 -9999 -9999 -9999 -9999 -9999 -9999 -9999 -9999 -9999 -9999 -9999 -9999 -9999 -9999 -9999 -9999 -9999 -9999 -9999 -9999 -9999 -9999 -9999 -9999 -9999 -9999 -9999 -9999 -9999 -9999 -9999 -9999 -9999 -9999 -9999 -9999 -9999 -9999 -9999 -9999 -9999 -9999 -9999 -9999 -9999 -9999 -9999 -9999 -9999 -9999 -9999 -9999 -9999 -9999 -9999 -9999 103.544444444444 167.07 368.5 436.08 557.53 669.65 946.19 864.24 854.32 816.9 633.2 791.38 869.51 944.56 928.27 905.15 815.19 695.89 694.2 613.48 589.42 654.52 742.7 762.57 798.28 807.6 705.29 663.46 693.98 800.39 873.54 899.47 872.88 667.97 608.95 633.46 707.38 756.37 949.91 1183.81 1155.78 789.26 884.06 1119.19 1026.4 1129.22 1234.49 1146.02 1138.53 1177.81 1277.77 1397.2 1286.36 1145.65 1030.45 969.42 969.56 1104.23 1077.52 510.56 450.74 340.88 142.43 78.8095238095238 -9999 -9999 -9999 -9999 -9999 -9999 -9999 -9999 -9999 -9999 -9999 -9999 -9999 -9999 -9999 -9999 -9999 -9999 -9999 -9999 -9999 -9999 -9999 -9999 -9999 -9999 -9999 -9999 -9999 -9999 -9999 -9999 -9999 -9999 -9999 -9999 -9999 -9999 -9999 -9999
-9999 -9999 -9999 -9999 -9999 -9999 -9999 -9999 -9999 -9999 -9999 -9999 -9999 -9999 -9999 -9999 -9999 -9999 -9999 -9999 -9999 -9999 -9999 -9999 -9999 -9999 -9999 -9999 -9999 -9999 -9999 -9999 -9999 -9999 -9999 -9999 -9999 -9999 -9999 -9999 -9999 -9999 -9999 -9999 -9999 -9999 -9999 -9999 -9999 -9999 -9999 -9999 -9999 -9999 -9999 -9999 -9999 -9999 -9999 -9999 -9999 -9999 -9999 -9999 -9999 -9999 -9999 -9999 -9999 -9999 -9999 -9999 -9999 135.98 373.18 463.46 534.25 633.38 1015.08 978.71 915.92 736.25 606.02 675.97 773.58 981.04 1007.2 976.38 925.34 819.14 729.08 703.23 670.57 705.41 775.96 810.49 824.12 873.15 838.65 756.13 728.12 838.84 942.63 926.84 947.2 709.41 687.78 615.92 636.77 682.34 860.79 1280.18 1365.45 1097.99 810.06 909.33 1081.94 992.82 1226.16 1125.87 1142.96 1190.45 1256.13 1298.11 1198.73 1099.17 990.29 825.71 823.98 1261.92 888.91 528.98 806.25 215.06 105.62 175.85 61.3116883116883 -9999 -9999 -9999 -9999 -9999 -9999 -9999 -9999 -9999 -9999 -9999 -9999 -9999 -9999 -9999 -9999 -9999 -9999 -9999 -9999 -9999 -9999 -9999 -9999 -9999 -9999 -9999 -9999 -9999 -9999 -9999 -9999 -9999 -9999 -9999 -9999 -9999 -9999 -9999
-9999 -9999 -9999 -9999 -9999 -9999 -9999 -9999 -9999 -9999 -9999 -9999 -9999 -9999 -9999 -9999 -9999 -9999 -9999 -9999 -9999 -9999 -9999 -9999 -9999 -9999 -9999 -9999 -9999 -9999 -9999 -9999 -9999 -9999 -9999 -9999 -9999 -9999 -9999 -9999 -9999 -9999 -9999 -9999 -9999 -9999 -9999 -9999 -9999 -9999 -9999 -9999 -9999 -9999 -9999 -9999 -9999 -9999 -9999 -9999 -9999 -9999 -9999 -9999 -9999 -9999 -9999 -9999 -9999 -9999 -9999 -9999 -9999 97.5833333333333 271.71 420.87 541.28 659.61 1063.25 1087.56 911.86 646.9 577.47 591.3 717.57 850.64 1031.37 1043.02 995.84 913.1 796.68 763.68 750.21 771.28 808.49 860.25 847.37 910.9 895.01 858.11 885.66 971.2 941.98 932.33 861.43 768.75 673.73 651.98 674.01 709.6 1000.54 1366.76 1469.37 1780.53 1312.79 875.13 1443.93 1182.76 942.35 1232.7 1260.74 1305.56 1416.71 1376.66 1251.15 1105.29 891.94 948.88 1275.03 972.83 863.98 499.68 368.28 105.16 135 147.92 -9999 -9999 -9999 -9999 -9999 -9999 -9999 -9999 -9999 -9999 -9999 -9999 -9999 -9999 -9999 -9999 -9999 -9999 -9999 -9999 -9999 -9999 -9999 -9999 -9999 -9999 -9999 -9999 -9999 -9999 -9999 -9999 -9999 -9999 -9999 -9999 -9999 -9999 -9999 -9999
-9999 -9999 -9999 -9999 -9999 -9999 -9999 -9999 -9999 -9999 -9999 -9999 -9999 -9999 -9999 -9999 -9999 -9999 -9999 -9999 -9999 -9999 -9999 -9999 -9999 -9999 -9999 -9999 -9999 -9999 -9999 -9999 -9999 -9999 -9999 -9999 -9999 -9999 -9999 -9999 -9999 -9999 -9999 -9999 -9999 -9999 -9999 -9999 -9999 -9999 -9999 -9999 -9999 -9999 -9999 -9999 -9999 -9999 -9999 -9999 -9999 -9999 -9999 -9999 -9999 -9999 -9999 -9999 -9999 -9999 -9999 -9999 -9999 50.171875 158.13 402.11 618.97 732.39 998.75 1196.32 1038.53 773.57 643.61 665.93 730.72 778.13 959.81 1097.89 1054.53 995.38 886.23 800.35 794.73 805.84 852.85 915.92 890.28 944.71 959.6 939.22 954.64 1007.44 965.98 805.91 763.83 772.12 648.45 721.33 933.57 848.5 960.21 1148.08 1443.85 1791.61 1331.47 814.31 1476.16 1700.98 1108.46 968.34 1188.04 1380.98 1495.46 1553.44 1273.17 1035.35 1236.85 1594.73 1616.89 1123.96 670.21 301.24 231.3 114.36 61.92 80.39 -9999 -9999 -9999 -9999 -9999 -9999 -9999 -9999 -9999 -9999 -9999 -9999 -9999 -9999 -9999 -9999 -9999 -9999 -9999 -9999 -9999 -9999 -9999 -9999 -9999 -9999 -9999 -9999 -9999 -9999 -9999 -9999 -9999 -9999 -9999 -9999 -9999 -9999 -9999 -9999
-9999 -9999 -9999 -9999 -9999 -9999 -9999 -9999 -9999 -9999 -9999 -9999 -9999 -9999 -9999 -9999 -9999 -9999 -9999 -9999 -9999 -9999 -9999 -9999 -9999 -9999 -9999 -9999 -9999 -9999 -9999 -9999 -9999 -9999 -9999 -9999 -9999 -9999 -9999 -9999 -9999 -9999 -9999 -9999 -9999 -9999 -9999 -9999 -9999 -9999 -9999 -9999 -9999 -9999 -9999 -9999 -9999 -9999 -9999 -9999 -9999 -9999 -9999 -9999 -9999 -9999 -9999 -9999 -9999 -9999 -9999 -9999 -9999 -9999 116.618556701031 317.48 542.93 723.15 901.42 1228.71 1154.81 866.54 682.6 735.11 700.31 804.54 1024.88 1138.39 1096.54 1049.12 986.74 898.25 865.66 845.67 878.53 950.31 905.15 972.8 1002.87 991.58 1027.9 1073.65 1069.55 921.46 715.42 613.17 638.97 1042.63 1289.62 1076.65 1086.31 1042.9 1357.91 1234.87 1131.78 893.28 1035.3 1719.4 1663.91 887.11 910.11 1201.92 1389.59 1299.56 1082.8 1228.76 1735.2 1821.32 1276.58 314.34 301.12 269.21 247.02 268.59 162.31 218.28 -9999 -9999 -9999 -9999 -9999 -9999 -9999 -9999 -9999 -9999 -9999 -9999 -9999 -9999 -9999 -9999 -9999 -9999 -9999 -9999 -9999 -9999 -9999 -9999 -9999 -9999 -9999 -9999 -9999 -9999 -9999 -9999 -9999 -9999 -9999 -9999 -9999 -9999 -9999 -9999
-9999 -9999 -9999 -9999 -9999 -9999 -9999 -9999 -9999 -9999 -9999 -9999 -9999 -9999 -9999 -9999 -9999 -9999 -9999 -9999 -9999 -9999 -9999 -9999 -9999 -9999 -9999 -9999 -9999 -9999 -9999 -9999 -9999 -9999 -9999 -9999 -9999 -9999 -9999 -9999 -9999 -9999 -9999 -9999 -9999 -9999 -9999 -9999 -9999 -9999 -9999 -9999 -9999 -9999 -9999 -9999 -9999 -9999 -9999 -9999 -9999 -9999 -9999 -9999 -9999 -9999 -9999 -9999 -9999 -9999 -9999 -9999 -9999 -9999 64.6105263157895 161.41 425.6 700.05 877.84 1222.22 1172.8 1005.47 706.28 735.95 712.17 843.14 1026.74 1131.63 1136.86 1070.2 1004.9 905.23 897.68 951.44 939.97 986.46 976.48 1046.04 1050.7 1006.3 1079.8 1099.72 1054.6 954.83 755.86 600.36 1044.18 1534.08 1362.09 1171.08 1106.4 991.89 1133.49 976.71 1044.5 1060.51 1012.83 1584.82 1675.16 1258.22 1094.83 1132.46 1512.64 1157.81 1128.44 1398.4 1620.68 1233.94 443.62 465.9 473.25 302.09 408.32 482.39 240.59 196.67 -9999 -9999 -9999 -9999 -9999 -9999 -9999 -9999 -9999 -9999 -9999 -9999 -9999 -9999 -9999 -9999 -9999 -9999 -9999 -9999 -9999 -9999 -9999 -9999 -9999 -9999 -9999 -9999 -9999 -9999 -9999 -9999 -9999 -9999 -9999 -9999 -9999 -9999 -9999 -9999
-9999 -9999 -9999 -9999 -9999 -9999 -9999 -9999 -9999 -9999 -9999 -9999 -9999 -9999 -9999 -9999 -9999 -9999 -9999 -9999 -9999 -9999 -9999 -9999 -9999 -9999 -9999 -9999 -9999 -9999 -9999 -9999 -9999 -9999 -9999 -9999 -9999 -9999 -9999 -9999 -9999 -9999 -9999 -9999 -9999 -9999 -9999 -9999 -9999 -9999 -9999 -9999 -9999 -9999 -9999 -9999 -9999 -9999 -9999 -9999 -9999 -9999 -9999 -9999 -9999 -9999 -9999 -9999 -9999 -9999 -9999 -9999 -9999 53.5375 83.51 89.14 240.11 603.98 844.16 1042.37 1081.75 1122.33 977.83 766.89 735.09 912.02 1023.03 1081.92 1155.65 1089.56 1023.22 977.64 987.07 1017.82 992.13 1045.54 1009.33 1087.74 1085.43 1015.33 1081.3 1080.8 960.53 790.33 621.14 858.61 1228.24 1290.73 1412.27 1333.37 963.34 972.1 1045.02 1135.15 1242.64 1331.99 1430.58 1647.91 1545.03 1427.09 1375.87 1614.04 1802.02 2027.59 1932.35 1714.84 1408.43 729 375.53 698.69 523.85 374 450.62 425.42 297.95 194.01 112.362637362637 -9999 -9999 -9999 -9999 -9999 -9999 -9999 -9999 -9999 -9999 -9999 -9999 -9999 -9999 -9999 -9999 -9999 -9999 -9999 -9999 -9999 -9999 -9999 -9999 -9999 -9999 -9999 -9999 -9999 -9999 -9999 -9999 -9999 -9999 -9999 -9999 -9999 -9999 -9999
-9999 -9999 -9999 -9999 -9999 -9999 -9999 -9999 -9999 -9999 -9999 -9999 -9999 -9999 -9999 -9999 -9999 -9999 -9999 -9999 -9999 -9999 -9999 -9999 -9999 -9999 -9999 -9999 -9999 -9999 -9999 -9999 -9999 -9999 -9999 -9999 -9999 -9999 -9999 -9999 -9999 -9999 -9999 -9999 -9999 -9999 -9999 -9999 -9999 -9999 -9999 -9999 -9999 -9999 -9999 -9999 -9999 -9999 -9999 -9999 -9999 -9999 -9999 -9999 -9999 -9999 -9999 -9999 -9999 -9999 -9999 -9999 -9999 71.52 151.49 107.23 116.85 416.87 704.61 981.87 1078.88 1123.53 1160.9 912.91 822.85 911.84 957.56 1058.36 1147.89 1121 1066.26 1042.09 1043.38 1056.84 1038 1068.99 1007.42 1013.59 1031.4 1026.88 1030.74 941.98 856.18 779.17 867.33 1380.45 1099.6 989.45 1551.38 1263.66 931.46 1109.42 1216.23 1320.32 1425.86 1473.04 1464.54 1491.52 1390.16 1262.93 1373.26 1439.47 1327.58 847.39 1831.53 1946.88 1519.21 815.75 709.18 710.37 495.62 470.91 566.98 398.62 375.47 256.4 165.54 -9999 -9999 -9999 -9999 -9999 -9999 -9999 -9999 -9999 -9999 -9999 -9999 -9999 -9999 -9999 -9999 -9999 -9999 -9999 -9999 -9999 -9999 -9999 -9999 -9999 -9999 -9999 -9999 -9999 -9999 -9999 -9999 -9999 -9999 -9999 -9999 -9999 -9999 -9999
-9999 -9999 -9999 -9999 -9999 -9999 -9999 -9999 -9999 -9999 -9999 -9999 -9999 -9999 -9999 -9999 -9999 -9999 -9999 -9999 -9999 -9999 -9999 -9999 -9999 -9999 -9999 -9999 -9999 -9999 -9999 -9999 -9999 -9999 -9999 -9999 -9999 -9999 -9999 -9999 -9999 -9999 -9999 -9999 -9999 -9999 -9999 -9999 -9999 -9999 -9999 -9999 -9999 -9999 -9999 -9999 -9999 -9999 -9999 -9999 -9999 -9999 -9999 -9999 -9999 -9999 -9999 -9999 -9999 -9999 -9999 -9999 -9999 -9999 106.474226804124 154.02 189.26 629.44 1033.49 1067.14 1080.53 1085.43 1110.66 1116.17 1040.93 1097.55 955.34 1045.99 1233.87 1193.75 1116.52 1098.79 1082.6 1071.63 1054.22 1036.09 1015.12 940.67 984.95 1038.54 1018.22 940.06 948.95 1035.65 1347.89 1195.91 949.95 918.7 1448.12 1169.98 943.32 1172.51 1262.18 1411.94 1486.47 1458.06 1400.84 1337.42 1255.95 1264.32 1266.38 1164.75 1331.86 611.13 785.64 1534.99 1151.76 936.19 851.12 651.31 601.8 629.45 725.76 440.83 319.89 315.76 353.15 109.96 -9999 -9999 -9999 -9999 -9999 -9999 -9999 -9999 -9999 -9999 -9999 -9999 -9999 -9999 -9999 -9999 -9999 -9999 -9999 -9999 -9999 -9999 -9999 -9999 -9999 -9999 -9999 -9999 -9999 -9999 -9999 -9999 -9999 -9999 -9999 -9999 -9999 -9999
-9999 -9999 -9999 -9999 -9999 -9999 -9999 -9999 -9999 -9999 -9999 -9999 -9999 -9999 -9999 -9999 -9999 -9999 -9999 -9999 -9999 -9999 -9999 -9999 -9999 -9999 -9999 -9999 -9999 -9999 -9999 -9999 -9999 -9999 -9999 -9999 -9999 -9999 -9999 -9999 -9999 -9999 -9999 -9999 -9999 -9999 -9999 -9999 -9999 -9999 -9999 -9999 -9999 -9999 -9999 -9999 -9999 -9999 -9999 -9999 -9999 -9999 -9999 -9999 -9999 -9999 -9999 -9999 -9999 -9999 -9999 -9999 -9999 -9999 61.695652173913 74.8 418.22 1055.15 1233.89 1299.3 1267.36 1115.15 1089.86 1102.39 1135.24 1222.49 1116.8 1151.66 1257.87 1268.02 1189.94 1147.23 1105.98 1086.14 1070.18 1028.73 1024.53 986.82 1059.38 1139.87 1134.24 1071.97 1097.92 1388.43 1533.15 1199.18 1051.44 926.93 1440.78 1245.98 985.89 1207.52 1284.78 1344.79 1313.21 1317.03 1289.12 1273.96 1225.95 1274.98 1126.88 1053.07 1481.73 1281.02 536.16 904.8 852.46 914.07 895.31 815.49 713.25 712.32 649.92 438.6 387.82 425.43 376.8 174.05 93.9315068493151 -9999 -9999 -9999 -9999 -9999 -9999 -9999 -9999 -9999 -9999 -9999 -9999 -9999 -9999 -9999 -9999 -9999 -9999 -9999 -9999 -9999 -9999 -9999 -9999 -9999 -9999 -9999 -9999 -9999 -9999 -9999 -9999 -9999 -9999 -9999 -9999 -9999
-9999 -9999 -9999 -9999 -9999 -9999 -9999 -9999 -9999 -9999 -9999 -9999 -9999 -9999 -9999 -9999 -9999 -9999 -9999 -9999 -9999 -9999 -9999 -9999 -9999 -9999 -9999 -9999 -9999 -9999 -9999 -9999 -9999 -9999 -9999 -9999 -9999 -9999 -9999 -9999 -9999 -9999 -9999 -9999 -9999 -9999 -9999 -9999 -9999 -9999 -9999 -9999 -9999 -9999 -9999 -9999 -9999 -9999 -9999 -9999 -9999 -9999 -9999 -9999 -9999 -9999 -9999 -9999 -9999 -9999 -9999 -9999 -9999 -9999 -9999 90.84 705.86 1267.14 1311.58 1408.79 1584.91 1264.78 1117.67 1119.7 1118.13 1226.03 1212.5 1210.6 1337.61 1320.64 1249.47 1175.91 1133.14 1100.19 1083.99 1069.26 1090.59 1090.36 1141.8 1188.24 1242.41 1204.92 1301.46 1376.86 1393.88 1323.63 1190.36 1091.85 1203.74 1200.54 1065.91 1222.08 1245.95 1193.62 1211.87 1215.74 1229.21 1273.68 1343.11 1268.01 915.28 891.23 1366.99 1711.11 -9999 940.96 1052.85 1002.03 860.73 851.14 753.64 588.73 500.19 417.9 358.58 391.81 503.46 230.43 110.03 -9999 -9999 -9999 -9999 -9999 -9999 -9999 -9999 -9999 -9999 -9999 -9999 -9999 -9999 -9999 -9999 -9999 -9999 -9999 -9999 -9999 -9999 -9999 -9999 -9999 -9999 -9999 -9999 -9999 -9999 -9999 -9999 -9999 -9999 -9999 -9999 -9999
-9999 -9999 -9999 -9999 -9999 -9999 -9999 -9999 -9999 -9999 -9999 -9999 -9999 -9999 -9999 -9999 -9999 -9999 -9999 -9999 -9999 -9999 -9999 -9999 -9999 -9999 -9999 -9999 -9999 -9999 -9999 -9999 -9999 -9999 -9999 -9999 -9999 -9999 -9999 -9999 -9999 -9999 -9999 -9999 -9999 -9999 -9999 -9999 -9999 -9999 -9999 -9999 -9999 -9999 -9999 -9999 -9999 -9999 -9999 -9999 -9999 -9999 -9999 -9999 -9999 -9999 -9999 -9999 -9999 -9999 -9999 -9999 -9999 -9999 -9999 149.952380952381 847.79 1360.38 1374.18 1558.18 1696.02 1517.57 1333.29 1348.56 1170.05 1236.67 1295.19 1298.94 1373.7 1319.82 1251.81 1193.4 1139.27 1101.77 1096.23 1109.86 1137.4 1170.49 1187.62 1232.88 1347.85 1345.77 1402.89 1396.87 1461.2 1480.96 1234.76 1241.89 1212.91 1146.79 1110.51 1246.69 1212.96 1170.09 1173.08 1187.06 1254.12 1400.38 1478.11 1169.58 800.46 819.29 1163.5 1287 642.05 847.19 1070.08 760.89 670.77 699.96 664.44 607.68 411.43 299.43 249.48 195.05 297.73 254.76 106.73 -9999 -9999 -9999 -9999 -9999 -9999 -9999 -9999 -9999 -9999 -9999 -9999 -9999 -9999 -9999 -9999 -9999 -9999 -9999 -9999 -9999 -9999 -9999 -9999 -9999 -9999 -9999 -9999 -9999 -9999 -9999 -9999 -9999 -9999 -9999 -9999 -9999
-9999 -9999 -9999 -9999 -9999 -9999 -9999 -9999 -9999 -9999 -9999 -9999 -9999 -9999 -9999 -9999 -9999 -9999 -9999 -9999 -9999 -9999 -9999 -9999 -9999 -9999 -9999 -9999 -9999 -9999 -9999 -9999 -9999 -9999 -9999 -9999 -9999 -9999 -9999 -9999 -9999 -9999 -9999 -9999 -9999 -9999 -9999 -9999 -9999 -9999 -9999 -9999 -9999 -9999 -9999 -9999 -9999 -9999 -9999 -9999 -9999 -9999 -9999 -9999 -9999 -9999 -9999 -9999 -9999 -9999 -9999 -9999 -9999 -9999 -9999 253.1 960.43 1394.53 1408.66 1442.36 1674.6 1537.71 1639.75 1475.33 1228.92 1213.86 1306.45 1364.22 1352.58 1334.11 1256.97 1187.19 1127.22 1103.91 1089.76 1095.41 1110.75 1128.18 1152.28 1290.82 1414.84 1420.81 1479.12 1425.18 1438.66 1443.7 1276.97 1325.88 1227.03 1144.34 1159.28 1264.06 1162.12 1172 1168.99 1185.09 1285.09 1443.42 1324.24 874.8 671.06 945.85 1264.89 1226.53 576.37 514.52 950.47 625.53 592.03 549.25 491.65 435.38 362.86 291.53 228.5 315.35 537.79 471.38 112.93 -9999 -9999 -9999 -9999 -9999 -9999 -9999 -9999 -9999 -9999 -9999 -9999 -9999 -9999 -9999 -9999 -9999 -9999 -9999 -9999 -9999 -9999 -9999 -9999 -9999 -9999 -9999 -9999 -9999 -9999 -9999 -9999 -9999 -9999 -9999 -9999 -9999
-9999 -9999 -9999 -9999 -9999 -9999 -9999 -9999 -9999 -9999 -9999 -9999 -9999 -9999 -9999 -9999 -9999 -9999 -9999 -9999 -9999 -9999 -9999 -9999 -9999 -9999 -9999 -9999 -9999 -9999 -9999 -9999 -9999 -9999 -9999 -9999 -9999 -9999 -9999 -9999 -9999 -9999 -9999 -9999 -9999 -9999 -9999 -9999 -9999 -9999 -9999 -9999 -9999 -9999 -9999 -9999 -9999 -9999 -9999 -9999 -9999 -9999 -9999 -9999 -9999 -9999 -9999 -9999 -9999 -9999 -9999 -9999 -9999 -9999 -9999 423.88 1094.6 1425.71 1595.02 1526.68 1608.01 1634.33 1706.81 1513.34 1326.51 1363.83 1393.09 1392.23 1370.77 1366.13 1303.26 1183.09 1114.1 1101.53 1086.54 1077.11 1083.65 1148.22 1290.31 1396.03 1355.22 1385.58 1358.94 1356.62 1413.98 1425.66 1363.93 1310.43 1254.32 1205.32 1129.73 1122.7 1160.45 1169.85 1170.21 1202.74 1308.81 1372.46 885.13 645.67 746.98 1078.67 1333.83 1129.68 486.6 530.21 716.1 744.23 649.98 576.3 533.29 448.99 433.4 301.42 279.48 382.04 309.08 273.6 142.9 -9999 -9999 -9999 -9999 -9999 -9999 -9999 -9999 -9999 -9999 -9999 -9999 -9999 -9999 -9999 -9999 -9999 -9999 -9999 -9999 -9999 -9999 -9999 -9999 -9999 -9999 -9999 -9999 -9999 -9999 -9999 -9999 -9999 -9999 -9999 -9999 -9999
-9999 -9999 -9999 -9999 -9999 -9999 -9999 -9999 -9999 -9999 -9999 -9999 -9999 -9999 -9999 -9999 -9999 -9999 -9999 -9999 -9999 -9999 -9999 -9999 -9999 -9999 -9999 -9999 -9999 -9999 -9999 -9999 -9999 -9999 -9999 -9999 -9999 -9999 -9999 -9999 -9999 -9999 -9999 -9999 -9999 -9999 -9999 -9999 -9999 -9999 -9999 -9999 -9999 -9999 -9999 -9999 -9999 -9999 -9999 -9999 -9999 -9999 -9999 -9999 -9999 -9999 -9999 -9999 -9999 -9999 -9999 -9999 -9999 -9999 144.448717948718 745.51 1228.3 1496.49 1711.21 1614.02 1620.82 1729.63 1707.17 1468.42 1351.6 1393.22 1427.03 1404.09 1355.34 1320.39 1294.74 1222.78 1132.07 1111.71 1091.48 1079.73 1091.75 1179.6 1316.39 1331.8 1287.83 1252.67 1208.42 1256.77 1328.58 1300.3 1307.66 1311.63 1306.45 1294.02 1227.93 1192.49 1190.9 1182.03 1197.66 1277.7 1425.33 1172.67 638.44 606.34 857.02 1132.8 1293.19 942.97 481.83 586.43 869.61 949.38 842.51 702.72 556.99 425.99 367.68 324.28 361.85 377.08 329.82 285.53 157.77 -9999 -9999 -9999 -9999 -9999 -9999 -9999 -9999 -9999 -9999 -9999 -9999 -9999 -9999 -9999 -9999 -9999 -9999 -9999 -9999 -9999 226.535714285714 -9999 -9999 -9999 -9999 -9999 -9999 -9999 -9999 -9999 -9999 -9999 -9999 -9999 -9999 -9999
-9999 -9999 -9999 -9999 -9999 -9999 -9999 -9999 -9999 -9999 -9999 -9999 -9999 -9999 -9999 -9999 -9999 -9999 -9999 -9999 -9999 -9999 -9999 -9999 -9999 -9999 -9999 -9999 -9999 -9999 -9999 -9999 -9999 -9999 -9999 -9999 -9999 -9999 -9999 -9999 -9999 -9999 -9999 -9999 -9999 -9999 -9999 -9999 -9999 -9999 -9999 -9999 -9999 -9999 -9999 -9999 -9999 -9999 -9999 -9999 -9999 -9999 -9999 -9999 -9999 -9999 -9999 -9999 -9999 -9999 -9999 -9999 -9999 166.220588235294 445.77 779.41 1019.48 1439.23 1619.37 1717.69 1721.25 1694.84 1635.42 1424.78 1395.53 1436.93 1459.37 1423 1410.48 1366.34 1321.74 1244.73 1169.74 1126.49 1103.65 1088.53 1104.38 1188.36 1199.64 1194.75 1186.75 1154.46 1172.6 1232.8 1286.76 1251.28 1259.97 1257.14 1262.24 1246.68 1273.12 1272.27 1236.18 1271.07 1282.24 1433.01 1504.55 938.89 580.33 665 968.4 1103.02 1073.6 953.5 509.23 632.74 1179.26 1110.25 964.32 660.48 490.31 452.75 488.59 445.84 426.05 434.2 398.29 319.54 157.61 -9999 -9999 -9999 -9999 -9999 -9999 -9999 -9999 -9999 -9999 -9999 -9999 -9999 -9999 -9999 -9999 -9999 -9999 -9999 -9999 122.30303030303 260.61 89.962962962963 -9999 -9999 -9999 -9999 -9999 -9999 -9999 -9999 -9999 -9999 -9999 -9999 -9999 -9999
-9999 -9999 -9999 -9999 -9999 -9999 -9999 -9999 -9999 -9999 -9999 -9999 -9999 -9999 -9999 -9999 -9999 -9999 -9999 -9999 -9999 -9999 -9999 -9999 -9999 -9999 -9999 -9999 -9999 -9999 -9999 -9999 -9999 -9999 -9999 -9999 -9999 -9999 -9999 -9999 -9999 -9999 -9999 -9999 -9999 -9999 -9999 -9999 -9999 -9999 -9999 -9999 -9999 -9999 -9999 -9999 -9999 -9999 -9999 -9999 -9999 -9999 -9999 -9999 -9999 -9999 -9999 -9999 -9999 -9999 -9999 -9999 -9999 494.77 648.82 877.5 1022.97 1391.4 1677.57 1650.67 1668.52 1620.49 1592.4 1437.86 1425.98 1479.94 1436.06 1461.5 1395.93 1362.58 1310.67 1280.62 1203.57 1133.21 1101.15 1084.56 1072.39 1083.5 1122.5 1136.56 1126.88 1158.21 1191.72 1266.51 1315.82 1238.62 1208.82 1187.48 1184.75 1191.98 1235.49 1310.51 1318.67 1414.95 1394.26 1362.19 1211.23 612.5 610.93 732.19 970.47 1067.89 1091.58 1061.36 530 594.85 1082.98 1087.69 778.59 617.28 620.89 644.81 642.28 529.03 527.75 497.19 421.87 320.19 179.43 58.06 -9999 -9999 -9999 -9999 -9999 -9999 -9999 -9999 -9999 -9999 -9999 -9999 -9999 -9999 -9999 -9999 -9999 -9999 -9999 53.5333333333333 269.3 193.516129032258 -9999 -9999 -9999 -9999 -9999 -9999 -9999 -9999 -9999 -9999 -9999 -9999 -9999 -9999
-9999 -9999 -9999 -9999 -9999 -9999 -9999 -9999 -9999 -9999 -9999 -9999 -9999 -9999 -9999 -9999 -9999 -9999 -9999 -9999 -9999 -9999 -9999 -9999 -9999 -9999 -9999 -9999 -9999 -9999 -9999 -9999 -9999 -9999 -9999 -9999 -9999 -9999 -9999 -9999 -9999 -9999 -9999 -9999 -9999 -9999 -9999 -9999 -9999 -9999 -9999 -9999 -9999 -9999 -9999 -9999 -9999 -9999 -9999 -9999 -9999 -9999 -9999 -9999 -9999 -9999 -9999 -9999 -9999 -9999 -9999 -9999 467.377777777778 778.13 778.13 930.44 1484.36 1635.79 1611.71 1565.72 1643.16 1591.08 1573.71 1512.86 1494.37 1489.61 1413.61 1422.04 1357.49 1325.17 1314.64 1274.02 1221.83 1151.14 1093.27 1073.61 1063.13 1069.11 1095.2 1109.01 1139.73 1165.91 1168.21 1198.08 1236.6 1200.42 1249.74 1168.94 1163.34 1216.03 1267.42 1254.35 1293.91 1385.35 1236.56 802.9 716.49 645.94 766.07 923.31 1121.68 1108.53 1146.66 1180.94 609.64 490.75 853.71 945.53 704.2 670.84 827.7 758.62 588.35 521.16 500.07 412.73 334.79 276.95 225.05 72.54 -9999 -9999 -9999 -9999 -9999 -9999 -9999 -9999 -9999 -9999 -9999 -9999 -9999 -9999 -9999 -9999 -9999 -9999 209.697368421053 579.74 797.51 367.99 -9999 -9999 -9999 -9999 -9999 -9999 -9999 -9999 -9999 -9999 -9999 -9999 -9999 -9999
-9999 -9999 -9999 -9999 -9999 -9999 -9999 -9999 -9999 -9999 -9999 -9999 -9999 -9999 -9999 -9999 -9999 -9999 -9999 -9999 -9999 -9999 -9999 -9999 -9999 -9999 -9999 -9999 -9999 -9999 -9999 -9999 -9999 -9999 -9999 -9999 -9999 -9999 -9999 -9999 -9999 -9999 -9999 -9999 -9999 -9999 -9999 -9999 -9999 -9999 -9999 -9999 -9999 -9999 -9999 -9999 -9999 -9999 -9999 -9999 -9999 -9999 -9999 -9999 -9999 -9999 -9999 -9999 -9999 -9999 -9999 -9999 488.35 663.29 849.68 925.23 1477.18 1471.88 1447.59 1443.52 1570.87 1562.17 1534.66 1512.03 1520.08 1492.29 1444.06 1369.58 1329.68 1277.54 1273.33 1261.63 1211.91 1152.47 1086.74 1060.33 1051.47 1050.91 1069.61 1103.98 1147.81 1159.94 1163.83 1137.28 1139.92 1168.97 1240.42 1159.2 1129.83 1159.85 1203.07 1192.5 1223.01 1201.4 751.21 645.76 711.89 923.88 980.32 1031.39 1007.14 1037.1 1173.38 1139.67 1031.6 494.73 681.85 919.07 680.71 704.78 655.27 566.36 504.6 431.13 375.76 343.87 338.84 305.49 203.83 78.8269230769231 -9999 -9999 -9999 -9999 -9999 -9999 -9999 -9999 -9999 -9999 -9999 -9999 -9999 -9999 -9999 -9999 -9999 159.253164556962 751.32 1408.38 1085.24 418.79 -9999 -9999 -9999 -9999 -9999 -9999 -9999 -9999 -9999 -9999 -9999 -9999 -9999 -9999
-9999 -9999 -9999 -9999 -9999 -9999 -9999 -9999 -9999 -9999 -9999 -9999 -9999 -9999 -9999 -9999 -9999 -9999 -9999 -9999 -9999 -9999 -9999 -9999 -9999 -9999 -9999 -9999 -9999 -9999 -9999 -9999 -9999 -9999 -9999 -9999 -9999 -9999 -9999 -9999 -9999 -9999 -9999 -9999 -9999 -9999 -9999 -9999 -9999 -9999 -9999 -9999 -9999 -9999 -9999 -9999 -9999 -9999 -9999 -9999 -9999 -9999 -9999 -9999 -9999 -9999 -9999 -9999 -9999 -9999 -9999 188.78125 560.3 711.87 1019.88 1314.16 1427.48 1321.37 1310.2 1405.58 1509.84 1494.92 1476.77 1474.08 1454.25 1464.19 1418.4 1350.11 1303.69 1244.3 1233.65 1228.41 1209.92 1150.67 1079.52 1047.55 1040.96 1036.1 1055.53 1091.33 1151.24 1195.2 1188.73 1177.81 1117.33 1135.05 1173.39 1160.18 1125.06 1145.78 1155.57 1095.4 1072.27 906.28 680.31 635.84 875.11 1018.97 1004.77 862.81 742.91 847.12 1214.23 1223.32 1306.79 716.42 640.48 808.66 663.76 655.67 596.59 543.55 529.54 504.28 447.69 454.73 420.46 333.72 215.68 93.9367088607595 -9999 -9999 -9999 -9999 -9999 -9999 -9999 -9999 -9999 -9999 -9999 -9999 -9999 -9999 -9999 -9999 -9999 95.29 1002.8 1260.83 1220.72 558.88 98.5555555555556 -9999 -9999 -9999 -9999 -9999 -9999 -9999 -9999 -9999 -9999 -9999 -9999 -9999
-9999 -9999 -9999 -9999 -9999 -9999 -9999 -9999 -9999 -9999 -9999 -9999 -9999 -9999 -9999 -9999 -9999 -9999 -9999 -9999 -9999 -9999 -9999 -9999 -9999 -9999 -9999 -9999 -9999 -9999 -9999 -9999 -9999 -9999 -9999 -9999 -9999 -9999 -9999 -9999 -9999 -9999 -9999 -9999 -9999 -9999 -9999 -9999 -9999 -9999 -9999 -9999 -9999 -9999 -9999 -9999 -9999 -9999 -9999 -9999 -9999 -9999 -9999 -9999 -9999 -9999 -9999 -9999 -9999 -9999 -9999 197.294871794872 485.92 862.52 1681.54 1537.78 1388.93 1309.39 1263.87 1330.71 1411.77 1420.69 1365.16 1390.21 1377.05 1394.77 1366.02 1317.18 1267.5 1240.48 1204.99 1171.3 1162.99 1139.68 1073.52 1041.71 1032.81 1028.38 1056.34 1105.9 1140.88 1165.17 1178.1 1149.31 1113.23 1168.14 1199.66 1217.97 1144.78 1139.96 1114.12 868.38 693.12 728.92 597.22 730.02 944.3 927.28 996.09 827.59 541.39 602.24 959.92 1042.52 1167.83 982.46 587.36 660.4 658.51 638.1 697.18 715.41 685.37 624.59 585.56 497.84 386.34 260 148.86 73.1506849315068 -9999 -9999 -9999 -9999 -9999 -9999 -9999 -9999 -9999 -9999 -9999 -9999 -9999 -9999 -9999 -9999 91.7244897959184 88.19 683.43 1012.65 998.76 615.53 185.646341463415 -9999 -9999 -9999 -9999 -9999 -9999 -9999 -9999 -9999 -9999 -9999 -9999 -9999
-9999 -9999 -9999 -9999 -9999 -9999 -9999 -9999 -9999 -9999 -9999 -9999 -9999 -9999 -9999 -9999 -9999 -9999 -9999 -9999 -9999 -9999 -9999 -9999 -9999 -9999 -9999 -9999 -9999 -9999 -9999 -9999 -9999 -9999 -9999 -9999 -9999 -9999 -9999 -9999 -9999 -9999 -9999 -9999 -9999 -9999 -9999 -9999 -9999 -9999 -9999 -9999 -9999 -9999 -9999 -9999 -9999 -9999 -9999 -9999 -9999 -9999 -9999 -9999 -9999 -9999 -9999 -9999 -9999 -9999 -9999 198.53 353.65 644.37 1378.5 1385.36 1389.42 1260.59 1212.3 1237.02 1294.64 1370.82 1332.6 1301.64 1309.08 1327.08 1298.51 1274 1232.74 1238.4 1213.49 1173.87 1122.74 1091.78 1063.02 1054.91 1045.29 1032.23 1075.21 1086.17 1131.41 1156.36 1182.56 1141.24 1134.08 1130.38 1036.9 1042.87 1022.64 1132.3 1159.12 1088.51 1044.91 753.33 498.96 609.74 711.92 750.08 733.14 582.92 488.77 468.16 585.35 758.1 991.04 758.78 726.98 672.49 693.11 727.3 870.98 942.4 684.16 565.65 496.34 369.6 293.71 188.97 98.7 -9999 -9999 -9999 -9999 -9999 -9999 -9999 -9999 -9999 -9999 -9999 -9999 -9999 -9999 -9999 54.1587301587302 42.21 89.72 137.73 399.07 748.96 847.1 332.882978723404 416.25 -9999 -9999 -9999 -9999 -9999 -9999 -9999 -9999 -9999 -9999 -9999 -9999 -9999
-9999 -9999 -9999 -9999 -9999 -9999 -9999 -9999 -9999 -9999 -9999 -9999 -9999 -9999 -9999 -9999 -9999 -9999 -9999 -9999 -9999 -9999 -9999 -9999 -9999 -9999 -9999 -9999 -9999 -9999 -9999 -9999 -9999 -9999 -9999 -9999 -9999 -9999 -9999 -9999 -9999 -9999 -9999 -9999 -9999 -9999 -9999 -9999 -9999 -9999 -9999 -9999 -9999 -9999 -9999 -9999 -9999 -9999 -9999 -9999 -9999 -9999 -9999 -9999 -9999 -9999 -9999 -9999 -9999 -9999 52.9137931034483 205.28 420.33 516.39 908.35 1295.76 1314.9 1199.03 1162.62 1200.7 1256.83 1290.17 1282.99 1264.26 1238.55 1253.19 1248.86 1226.72 1220.01 1229.93 1209.49 1174.82 1134.44 1082.52 1055.56 1044.53 1039.24 1027.31 1054.3 1083.04 1119.56 1156.42 1185.2 1145.46 1047.42 1011.96 994.5 982.82 999.04 1056.01 1009.4 827.46 591.28 469.89 577.46 385.75 388.6 394.63 413.46 379.13 453.83 367.98 381.49 398.05 554.93 468.07 875.02 864.87 718.58 715.78 626.9 613.85 546.06 413.35 334.28 251.87 163.46 119.08 61.6282051282051 -9999 -9999 -9999 -9999 -9999 -9999 -9999 -9999 -9999 -9999 -9999 -9999 -9999 -9999 44.1194029850746 61.03 76.38 80.19 216.74 352.75 571.94 766.01 -9999 205.462686567164 -9999 -9999 -9999 -9999 -9999 -9999 -9999 -9999 -9999 -9999 -9999 -9999 -9999
-9999 -9999 -9999 -9999 -9999 -9999 -9999 -9999 -9999 -9999 -9999 -9999 -9999 -9999 -9999 -9999 -9999 -9999 -9999 -9999 -9999 -9999 -9999 -9999 -9999 -9999 -9999 -9999 -9999 -9999 -9999 -9999 -9999 -9999 -9999 -9999 -9999 -9999 -9999 -9999 -9999 -9999 -9999 -9999 -9999 -9999 -9999 -9999 -9999 -9999 -9999 -9999 -9999 -9999 -9999 -9999 -9999 -9999 -9999 -9999 -9999 -9999 -9999 -9999 -9999 -9999 -9999 -9999 -9999 -9999 66.9868421052632 261.49 516.54 880.86 1183.86 1219.11 1236.31 1162.2 1140.49 1164.9 1199.09 1201.29 1204.33 1211.34 1197.95 1199.53 1202.64 1192.71 1205.94 1220.47 1190.86 1160.28 1116.22 1076.89 1044.65 1034.97 1027.6 1018.47 1034.04 1067.03 1093.21 1135.5 1166.6 1118.55 1037.43 1082.62 1073.63 1043.64 1091.69 1116.45 737.42 518.42 718.59 743.86 568.4 455.6 413.3 442.77 553.75 551.16 434.92 364.5 268.7 287.32 311.2 190.52 580.92 678.43 537.3 628.62 468.76 392.81 339.33 267.34 220.04 151.68 86.42 44.9574468085106 -9999 -9999 -9999 -9999 -9999 -9999 -9999 -9999 -9999 -9999 -9999 -9999 39.8181818181818 51.3814432989691 50.06 58.08 90.99 121.83 180.62 633.87 660.05 748.49 639 218.15 -9999 -9999 -9999 -9999 -9999 -9999 -9999 -9999 -9999 -9999 -9999 -9999 -9999 -9999
